-1.04206010,1.53110970,9.81808206,0.00000000,250.00000000,0.00000000
1.09018467,-2.12596878,9.49089365,0.00000000,250.00000000,0.00000000
1.38107727,1.84761524,2.81508891,250.00000000,0.00000000,0.00000000
0.88690843,0.21837452,2.97857069,250.00000000,0.00000000,0.00000000
-0.27656276,0.54653244,0.20087512,250.00000000,0.00000000,0.00000000
0.21910393,0.24963478,7.47665114,0.00000000,250.00000000,0.00000000
0.19907340,-1.86453076,9.56950035,0.00000000,250.00000000,0.00000000
-1.57416874,1.12072888,9.18014340,0.00000000,250.00000000,0.00000000
1.82151975,1.16554423,5.16106411,0.00000000,0.00000000,250.00000000
1.62832253,-0.42839529,1.25448048,250.00000000,0.00000000,0.00000000
-0.18135760,-1.10598111,4.89949447,0.00000000,0.00000000,250.00000000
0.68562196,-0.46146191,9.05302385,0.00000000,250.00000000,0.00000000
0.04853698,-0.49225621,4.84040175,0.00000000,0.00000000,250.00000000
1.34857185,0.22253920,6.36399003,0.00000000,0.00000000,250.00000000
1.90129607,0.82765064,9.61709542,0.00000000,250.00000000,0.00000000
0.13277143,-2.03666930,3.68750913,0.00000000,0.00000000,250.00000000
0.57242644,0.63333543,2.38336937,250.00000000,0.00000000,0.00000000
1.33331630,-1.33199670,2.01779983,250.00000000,0.00000000,0.00000000
-0.00913558,-1.74266497,8.02236324,0.00000000,250.00000000,0.00000000
1.80586767,-1.26929864,1.29837113,250.00000000,0.00000000,0.00000000
0.34421431,-1.00314765,6.61816534,0.00000000,250.00000000,0.00000000
1.06526816,-0.27739400,3.24229061,0.00000000,0.00000000,250.00000000
1.76130476,-1.07530672,3.65169594,0.00000000,0.00000000,250.00000000
1.21865926,-0.15678093,7.76372910,0.00000000,250.00000000,0.00000000
2.22518284,0.00270421,0.11668237,250.00000000,0.00000000,0.00000000
1.48469375,-0.03461616,3.43837400,0.00000000,0.00000000,250.00000000
-0.09872568,0.59725859,7.56553323,0.00000000,250.00000000,0.00000000
-1.47724887,0.38294162,8.66931779,0.00000000,250.00000000,0.00000000
-1.05196058,-0.53748408,9.59635976,0.00000000,250.00000000,0.00000000
0.11589175,2.36424894,2.46260338,250.00000000,0.00000000,0.00000000
1.44251453,0.26449325,9.24040417,0.00000000,250.00000000,0.00000000
-1.05638765,-0.68503159,3.63234835,0.00000000,0.00000000,250.00000000
-1.01776691,-0.74571250,4.27922505,0.00000000,0.00000000,250.00000000
1.65682172,0.36394390,2.00485644,250.00000000,0.00000000,0.00000000
-1.55130499,1.49660813,4.42216795,0.00000000,0.00000000,250.00000000
1.07099423,0.47746654,0.08682178,250.00000000,0.00000000,0.00000000
-1.68892455,0.57342401,1.32138770,250.00000000,0.00000000,0.00000000
-1.05228579,0.38523974,2.67866470,250.00000000,0.00000000,0.00000000
-1.44132833,-0.35620445,9.31687748,0.00000000,250.00000000,0.00000000
-1.56419641,-0.53012156,5.09320102,0.00000000,0.00000000,250.00000000
-0.92456428,1.39827917,6.71252189,0.00000000,250.00000000,0.00000000
0.05997321,-0.81047778,3.61991086,0.00000000,0.00000000,250.00000000
0.01769064,1.92675036,5.85039195,0.00000000,0.00000000,250.00000000
-1.46570520,1.26285863,3.93449243,0.00000000,0.00000000,250.00000000
1.54361791,1.09728682,8.04038047,0.00000000,250.00000000,0.00000000
0.99063472,-1.95254690,2.06944745,250.00000000,0.00000000,0.00000000
0.31483254,0.56192505,2.09620106,250.00000000,0.00000000,0.00000000
0.01157229,0.18813923,5.15614071,0.00000000,0.00000000,250.00000000
0.46333697,-2.12445611,4.52902471,0.00000000,0.00000000,250.00000000
-0.69712205,-0.42984237,0.42655316,250.00000000,0.00000000,0.00000000
0.39246536,-2.33659607,2.50694763,250.00000000,0.00000000,0.00000000
1.05839693,-1.94177497,6.65376568,0.00000000,250.00000000,0.00000000
0.19006807,0.73132142,1.22901734,250.00000000,0.00000000,0.00000000
-0.54616921,-0.17515695,5.65023390,0.00000000,0.00000000,250.00000000
1.37509659,-1.05057259,7.98380827,0.00000000,250.00000000,0.00000000
-0.77967855,0.29160820,1.90146586,250.00000000,0.00000000,0.00000000
-1.37734328,0.67038435,6.51399528,0.00000000,0.00000000,250.00000000
-1.60370936,1.32883732,1.44895700,250.00000000,0.00000000,0.00000000
1.03294996,0.48800022,7.16882447,0.00000000,250.00000000,0.00000000
0.21357187,-1.53302911,3.95582015,0.00000000,0.00000000,250.00000000
0.51201231,1.81157584,5.20788281,0.00000000,0.00000000,250.00000000
0.66936554,0.56107569,9.83913842,0.00000000,250.00000000,0.00000000
0.71299911,-1.63686273,3.53706166,0.00000000,0.00000000,250.00000000
0.18422801,1.82343015,6.43272125,0.00000000,0.00000000,250.00000000
-1.84932599,-0.55958572,3.56809806,0.00000000,0.00000000,250.00000000
2.13494674,0.82935218,7.75917163,0.00000000,250.00000000,0.00000000
-1.21222755,-1.19985572,1.75200630,250.00000000,0.00000000,0.00000000
0.33144442,1.26154510,5.63762982,0.00000000,0.00000000,250.00000000
1.18294498,0.35380248,8.57926456,0.00000000,250.00000000,0.00000000
-0.42179898,1.43444662,9.12851526,0.00000000,250.00000000,0.00000000
-0.25958978,1.55624190,7.35502928,0.00000000,250.00000000,0.00000000
-1.19560591,1.13110074,7.74258170,0.00000000,250.00000000,0.00000000
-2.01068289,0.44811859,1.39533147,250.00000000,0.00000000,0.00000000
-0.79307653,1.89541905,8.88471035,0.00000000,250.00000000,0.00000000
0.02679689,2.19236885,3.46510903,0.00000000,0.00000000,250.00000000
-1.57994776,0.85435470,7.52755107,0.00000000,250.00000000,0.00000000
-0.96742714,0.50338097,4.93184426,0.00000000,0.00000000,250.00000000
-2.23810866,0.33445291,8.80191170,0.00000000,250.00000000,0.00000000
-0.10437344,-2.09755630,5.49829742,0.00000000,0.00000000,250.00000000
0.82874644,-0.63466279,3.96161900,0.00000000,0.00000000,250.00000000
-0.38695876,-1.07293302,1.18891049,250.00000000,0.00000000,0.00000000
1.80323504,0.77565110,2.78142843,250.00000000,0.00000000,0.00000000
-0.73454389,-0.16007244,8.28258360,0.00000000,250.00000000,0.00000000
-0.51445157,-2.37621133,9.01226593,0.00000000,250.00000000,0.00000000
-0.66567249,1.81306972,1.00116435,250.00000000,0.00000000,0.00000000
0.64821858,1.45658274,6.70670004,0.00000000,250.00000000,0.00000000
2.09768437,0.55309889,1.33667555,250.00000000,0.00000000,0.00000000
-0.53137619,0.33597860,3.53767224,0.00000000,0.00000000,250.00000000
-1.59718488,1.15148376,4.08744252,0.00000000,0.00000000,250.00000000
-2.03706374,0.06068842,3.08388433,250.00000000,0.00000000,0.00000000
-1.18719342,-1.78039789,1.62681760,250.00000000,0.00000000,0.00000000
1.92568134,0.57875605,3.17797916,0.00000000,0.00000000,250.00000000
-0.07273690,-1.80293703,2.25492279,250.00000000,0.00000000,0.00000000
-1.78379618,-1.65123861,6.54619898,0.00000000,250.00000000,0.00000000
-0.24032735,0.60787317,9.93269320,0.00000000,250.00000000,0.00000000
-0.43302439,-1.98295356,3.56246442,0.00000000,0.00000000,250.00000000
-0.28858229,-1.59621368,6.27515316,0.00000000,0.00000000,250.00000000
-0.85243186,0.24414592,1.59861901,250.00000000,0.00000000,0.00000000
-0.69417617,-1.63754301,0.77196157,250.00000000,0.00000000,0.00000000
0.01683859,1.71500366,5.97267799,0.00000000,0.00000000,250.00000000
1.71564797,-1.45848986,0.69566062,250.00000000,0.00000000,0.00000000
2.40864399,-0.03235823,2.52094141,250.00000000,0.00000000,0.00000000
-1.57420388,-1.75153583,0.05587628,250.00000000,0.00000000,0.00000000
1.48013634,0.85967049,9.61601645,0.00000000,250.00000000,0.00000000
-1.15185594,-1.09735415,1.71089662,250.00000000,0.00000000,0.00000000
-1.50263057,-0.52583523,9.16066947,0.00000000,250.00000000,0.00000000
-0.69674280,1.94252489,6.31499169,0.00000000,0.00000000,250.00000000
-1.13163838,-0.00902410,9.65817350,0.00000000,250.00000000,0.00000000
-1.61290506,-1.17439308,9.65792700,0.00000000,250.00000000,0.00000000
-0.14686135,-1.14047722,3.70993578,0.00000000,0.00000000,250.00000000
0.15042031,0.65908877,1.65213606,250.00000000,0.00000000,0.00000000
-0.56861993,-0.29405616,6.62432599,0.00000000,250.00000000,0.00000000
-0.16837283,1.42495803,6.49283033,0.00000000,0.00000000,250.00000000
-1.85040495,0.45170810,0.41230029,250.00000000,0.00000000,0.00000000
-1.18876130,1.71694530,1.21274325,250.00000000,0.00000000,0.00000000
-0.70924294,-0.59613095,5.45425429,0.00000000,0.00000000,250.00000000
-1.07424429,-2.11585404,6.74299336,0.00000000,250.00000000,0.00000000
1.17169798,-1.91818859,7.33511768,0.00000000,250.00000000,0.00000000
0.75875839,-1.58482703,5.20549216,0.00000000,0.00000000,250.00000000
0.97788875,-0.58186022,1.92035939,250.00000000,0.00000000,0.00000000
2.21397189,-0.93612099,4.59300096,0.00000000,0.00000000,250.00000000
-0.28229217,-1.91330417,4.89489316,0.00000000,0.00000000,250.00000000
-0.25231441,-0.85065632,6.03213750,0.00000000,0.00000000,250.00000000
-0.18398364,-0.39685673,2.78575326,250.00000000,0.00000000,0.00000000
0.20073362,0.32632340,5.07021152,0.00000000,0.00000000,250.00000000
-2.36198478,0.10188463,3.09773924,250.00000000,0.00000000,0.00000000
-0.18992964,-1.13872517,4.73431159,0.00000000,0.00000000,250.00000000
0.89259815,0.65476362,4.21454345,0.00000000,0.00000000,250.00000000
-0.37106707,0.83875588,7.25378747,0.00000000,250.00000000,0.00000000
-0.04757200,-0.58410085,0.97192580,250.00000000,0.00000000,0.00000000
-0.78850684,-0.58537198,1.58150732,250.00000000,0.00000000,0.00000000
0.58575663,-1.77331297,1.19663319,250.00000000,0.00000000,0.00000000
-0.19772092,1.62678935,1.00259607,250.00000000,0.00000000,0.00000000
1.87101024,-0.62537586,3.39564263,0.00000000,0.00000000,250.00000000
-1.55612098,0.65702826,8.88178103,0.00000000,250.00000000,0.00000000
-1.29080060,-0.26416838,5.08836133,0.00000000,0.00000000,250.00000000
0.84739398,1.37372313,8.13467649,0.00000000,250.00000000,0.00000000
-0.86681131,-0.68398801,0.30250315,250.00000000,0.00000000,0.00000000
0.17142035,0.78290349,4.48037133,0.00000000,0.00000000,250.00000000
0.16829535,-1.46391498,7.98569633,0.00000000,250.00000000,0.00000000
-1.25032700,1.56247143,9.30760222,0.00000000,250.00000000,0.00000000
0.89161043,-1.35475234,3.38156935,0.00000000,0.00000000,250.00000000
-1.28173708,-0.26533329,1.02979034,250.00000000,0.00000000,0.00000000
1.54430765,1.01529867,2.47092154,250.00000000,0.00000000,0.00000000
1.42136686,0.88586448,4.01433854,0.00000000,0.00000000,250.00000000
-1.12468180,-0.69848101,3.29125133,0.00000000,0.00000000,250.00000000
2.41566686,0.08742785,5.23452686,0.00000000,0.00000000,250.00000000
1.88183923,0.58630558,9.72722143,0.00000000,250.00000000,0.00000000
-0.58293606,-0.63972965,4.22703724,0.00000000,0.00000000,250.00000000
0.30073089,0.55116468,7.25708777,0.00000000,250.00000000,0.00000000
-0.23272854,-1.97063799,3.71970831,0.00000000,0.00000000,250.00000000
0.70672014,-2.19776527,5.23471677,0.00000000,0.00000000,250.00000000
2.42828122,0.03875880,8.28841007,0.00000000,250.00000000,0.00000000
-1.34224624,-1.74824057,8.24215875,0.00000000,250.00000000,0.00000000
1.06143015,1.98761562,4.87004563,0.00000000,0.00000000,250.00000000
0.26479207,0.78281076,2.21100123,250.00000000,0.00000000,0.00000000
2.29782876,0.60535000,8.69828753,0.00000000,250.00000000,0.00000000
-0.87264757,-1.29267516,7.82938226,0.00000000,250.00000000,0.00000000
0.69992477,-0.11325151,9.62980617,0.00000000,250.00000000,0.00000000
-0.61428973,-0.91591348,4.95750883,0.00000000,0.00000000,250.00000000
1.64757370,-0.32180769,2.68043964,250.00000000,0.00000000,0.00000000
1.16867328,-0.64629920,2.26899436,250.00000000,0.00000000,0.00000000
-0.30670241,0.28609816,3.83274888,0.00000000,0.00000000,250.00000000
2.31829912,0.66619871,9.05405414,0.00000000,250.00000000,0.00000000
1.53094238,1.68461624,2.08862558,250.00000000,0.00000000,0.00000000
-0.08208090,0.48726603,9.34108038,0.00000000,250.00000000,0.00000000
0.47340916,-1.22303075,2.93191450,250.00000000,0.00000000,0.00000000
-0.57109525,-1.44636894,0.87097843,250.00000000,0.00000000,0.00000000
-1.41918577,1.43606919,6.66002810,0.00000000,250.00000000,0.00000000
-0.74981311,2.23912977,4.65522787,0.00000000,0.00000000,250.00000000
-0.83268120,0.60913082,0.46869929,250.00000000,0.00000000,0.00000000
-0.67466590,-0.89827597,0.64446912,250.00000000,0.00000000,0.00000000
-1.08362680,-0.00765657,2.71879917,250.00000000,0.00000000,0.00000000
0.66294093,-2.13465413,8.40648073,0.00000000,250.00000000,0.00000000
1.34909645,-1.43443946,3.11451782,250.00000000,0.00000000,0.00000000
1.48583836,1.48245056,1.77177008,250.00000000,0.00000000,0.00000000
2.02580133,-0.08276556,7.55338513,0.00000000,250.00000000,0.00000000
0.38144241,2.40083234,6.93142224,0.00000000,250.00000000,0.00000000
-1.23720492,1.51281119,3.07779514,250.00000000,0.00000000,0.00000000
-2.02642445,-1.15618768,8.79935494,0.00000000,250.00000000,0.00000000
-0.33433008,1.06454374,2.95377528,250.00000000,0.00000000,0.00000000
-0.87890776,-1.96568114,2.61070448,250.00000000,0.00000000,0.00000000
0.10293639,-1.33604287,6.86055819,0.00000000,250.00000000,0.00000000
0.24531273,-0.49433086,7.93926198,0.00000000,250.00000000,0.00000000
-0.71948973,2.30021625,6.72683278,0.00000000,250.00000000,0.00000000
-1.40642073,-1.99018850,5.53043797,0.00000000,0.00000000,250.00000000
-1.65406103,-0.58177665,9.01476206,0.00000000,250.00000000,0.00000000
2.05970213,-1.00001962,7.34486912,0.00000000,250.00000000,0.00000000
-1.06318314,0.71591305,6.90938840,0.00000000,250.00000000,0.00000000
2.38657959,-0.00749794,8.68585217,0.00000000,250.00000000,0.00000000
-0.13505225,-1.74330703,7.22194886,0.00000000,250.00000000,0.00000000
-2.36195674,-0.23787632,5.70405163,0.00000000,0.00000000,250.00000000
-1.60479352,0.29752475,3.47955286,0.00000000,0.00000000,250.00000000
0.60668538,-0.13623674,3.80669100,0.00000000,0.00000000,250.00000000
-1.48216061,0.33627928,8.57809349,0.00000000,250.00000000,0.00000000
-1.53263860,0.72177564,3.68541531,0.00000000,0.00000000,250.00000000
-1.11985124,-0.67594241,6.37244765,0.00000000,0.00000000,250.00000000
-1.73134254,-0.26051761,9.25457947,0.00000000,250.00000000,0.00000000
1.31206725,-1.16518777,4.39857691,0.00000000,0.00000000,250.00000000
1.09228977,-0.71173895,3.99148737,0.00000000,0.00000000,250.00000000
0.19427426,0.12457238,4.29908487,0.00000000,0.00000000,250.00000000
1.96421015,0.27240367,1.60606415,250.00000000,0.00000000,0.00000000
-1.60983567,0.30379527,9.47379799,0.00000000,250.00000000,0.00000000
-1.95296065,-1.43463560,9.60438979,0.00000000,250.00000000,0.00000000
0.71782173,-1.37181907,4.75477171,0.00000000,0.00000000,250.00000000
-2.07449487,-0.58287434,6.12569342,0.00000000,0.00000000,250.00000000
-0.26209232,2.37933540,7.35180808,0.00000000,250.00000000,0.00000000
-1.14214593,2.10694460,4.88985112,0.00000000,0.00000000,250.00000000
-0.24473792,-2.26449069,8.30679076,0.00000000,250.00000000,0.00000000
0.70596009,-1.06634420,9.15388627,0.00000000,250.00000000,0.00000000
-0.92040215,0.29631053,8.95835193,0.00000000,250.00000000,0.00000000
-2.23744051,0.31865761,5.59760764,0.00000000,0.00000000,250.00000000
0.47676759,-1.04375193,6.69092470,0.00000000,250.00000000,0.00000000
-1.84842778,-1.10249793,0.10456819,250.00000000,0.00000000,0.00000000
0.86138937,1.59105654,0.12552722,250.00000000,0.00000000,0.00000000
0.48460990,2.15245016,9.29215965,0.00000000,250.00000000,0.00000000
1.02619657,1.44553341,3.41007613,0.00000000,0.00000000,250.00000000
-0.47130344,1.84575535,6.05909125,0.00000000,0.00000000,250.00000000
-0.09261898,-2.21836525,8.46119055,0.00000000,250.00000000,0.00000000
1.40438138,0.18731153,4.55660457,0.00000000,0.00000000,250.00000000
0.76566766,-1.95765973,6.15863743,0.00000000,0.00000000,250.00000000
0.52848316,1.84754373,8.42491163,0.00000000,250.00000000,0.00000000
1.82706006,-0.16010732,8.20386433,0.00000000,250.00000000,0.00000000
-0.13226242,0.63877501,4.52377705,0.00000000,0.00000000,250.00000000
0.40243240,0.39603603,2.57094851,250.00000000,0.00000000,0.00000000
0.80997895,-0.97935239,2.08932896,250.00000000,0.00000000,0.00000000
2.19831817,-0.78105214,1.99219288,250.00000000,0.00000000,0.00000000
0.97907159,-0.18392549,8.35897144,0.00000000,250.00000000,0.00000000
1.06288328,1.95870824,4.80727436,0.00000000,0.00000000,250.00000000
0.68398254,-1.14667076,2.70941654,250.00000000,0.00000000,0.00000000
-1.38764849,0.37236325,5.32072238,0.00000000,0.00000000,250.00000000
-0.72406969,0.17776331,4.08459153,0.00000000,0.00000000,250.00000000
0.30012810,0.54841436,7.15411713,0.00000000,250.00000000,0.00000000
1.08560084,0.10864459,8.28864663,0.00000000,250.00000000,0.00000000
1.25669989,0.69186784,2.86172249,250.00000000,0.00000000,0.00000000
-0.91491897,-1.79235658,0.94834888,250.00000000,0.00000000,0.00000000
-1.01179623,-0.74132059,4.22934641,0.00000000,0.00000000,250.00000000
-0.37468835,-2.01508137,5.82558361,0.00000000,0.00000000,250.00000000
0.16050322,-1.50237737,3.06223431,250.00000000,0.00000000,0.00000000
1.29518899,-2.02193845,7.86303105,0.00000000,250.00000000,0.00000000
-1.59024557,0.48477896,8.93863010,0.00000000,250.00000000,0.00000000
-0.82040542,1.04121432,3.61583184,0.00000000,0.00000000,250.00000000
1.63343337,-1.78089128,4.70572187,0.00000000,0.00000000,250.00000000
-1.82667341,-0.22456905,6.76405849,0.00000000,250.00000000,0.00000000
-1.20817092,0.76426250,6.09773057,0.00000000,0.00000000,250.00000000
-0.23538210,-1.04263539,4.49630176,0.00000000,0.00000000,250.00000000
-1.08337876,-1.26163318,1.53340703,250.00000000,0.00000000,0.00000000
-0.78985101,1.12890752,9.91614413,0.00000000,250.00000000,0.00000000
0.81179016,-0.75788774,3.44968794,0.00000000,0.00000000,250.00000000
-0.85399564,0.31746313,8.71047328,0.00000000,250.00000000,0.00000000
-1.52276406,1.02073549,1.61971794,250.00000000,0.00000000,0.00000000
-2.12962385,-0.74731565,8.14836557,0.00000000,250.00000000,0.00000000
-1.12258061,-2.00873533,1.98558766,250.00000000,0.00000000,0.00000000
-1.41211622,0.42215088,3.05554768,250.00000000,0.00000000,0.00000000
0.09148377,-1.44899630,8.97326066,0.00000000,250.00000000,0.00000000
-0.69317973,0.69054267,2.95870831,250.00000000,0.00000000,0.00000000
-1.69856983,-1.37631189,8.20230257,0.00000000,250.00000000,0.00000000
-0.06547298,-2.44519756,1.05244286,250.00000000,0.00000000,0.00000000
-1.36056463,-0.84964286,1.90742180,250.00000000,0.00000000,0.00000000
1.14535218,1.27995942,5.75601420,0.00000000,0.00000000,250.00000000
-1.40067847,-0.33402220,3.59081726,0.00000000,0.00000000,250.00000000
-1.05415956,2.00473716,3.11976217,250.00000000,0.00000000,0.00000000
-0.85895457,1.49212643,6.79074573,0.00000000,250.00000000,0.00000000
1.58468350,1.17574304,5.94670657,0.00000000,0.00000000,250.00000000
1.60674168,-0.05056741,2.13576744,250.00000000,0.00000000,0.00000000
1.72251990,1.17526130,4.96308014,0.00000000,0.00000000,250.00000000
-1.67825509,-0.94885687,5.56331315,0.00000000,0.00000000,250.00000000
-0.64074374,-2.04256615,8.77271440,0.00000000,250.00000000,0.00000000
0.41734150,-0.93662375,4.57503729,0.00000000,0.00000000,250.00000000
1.53286581,0.85534202,7.95875247,0.00000000,250.00000000,0.00000000
-0.60945832,-1.73752705,8.60049163,0.00000000,250.00000000,0.00000000
1.65394975,-1.68613142,8.82147901,0.00000000,250.00000000,0.00000000
-0.72393413,-0.39861296,1.83506198,250.00000000,0.00000000,0.00000000
-0.94147110,-1.54342748,9.52433243,0.00000000,250.00000000,0.00000000
-1.01612120,-0.89162380,9.85509857,0.00000000,250.00000000,0.00000000
-1.91685591,1.28980281,5.72865894,0.00000000,0.00000000,250.00000000
-0.83390007,-0.88104997,8.94644077,0.00000000,250.00000000,0.00000000
1.92021433,0.77456756,0.30939302,250.00000000,0.00000000,0.00000000
-1.76814274,0.05683474,4.85968997,0.00000000,0.00000000,250.00000000
1.11836435,0.98027296,6.89483319,0.00000000,250.00000000,0.00000000
-1.70461069,1.62589866,1.20414945,250.00000000,0.00000000,0.00000000
0.27443331,-2.24205715,7.48663349,0.00000000,250.00000000,0.00000000
-0.94625280,-2.23474427,8.68882129,0.00000000,250.00000000,0.00000000
-2.12928946,0.92206686,3.23614660,250.00000000,0.00000000,0.00000000
-1.53532362,0.78313813,1.45374695,250.00000000,0.00000000,0.00000000
1.22396006,0.69089452,5.83711073,0.00000000,0.00000000,250.00000000
-1.29227596,0.30158797,2.17158352,250.00000000,0.00000000,0.00000000
-1.50774486,1.07377879,3.60539578,0.00000000,0.00000000,250.00000000
2.22586030,0.47285403,4.92491418,0.00000000,0.00000000,250.00000000
-1.38263136,-0.61918135,0.49520898,250.00000000,0.00000000,0.00000000
-1.21251865,1.46384550,7.22866665,0.00000000,250.00000000,0.00000000
-0.11466237,-1.25542859,5.77327185,0.00000000,0.00000000,250.00000000
-0.85643506,-1.05556590,9.42025954,0.00000000,250.00000000,0.00000000
-0.50923127,-1.74561496,3.28719937,0.00000000,0.00000000,250.00000000
-0.51691757,1.67460943,0.90641371,250.00000000,0.00000000,0.00000000
-0.76718325,1.43989053,6.87116897,0.00000000,250.00000000,0.00000000
-1.70615865,-0.79978814,7.37591400,0.00000000,250.00000000,0.00000000
-2.15983002,-1.01111491,0.51907291,250.00000000,0.00000000,0.00000000
1.74771700,0.15494116,6.19921519,0.00000000,0.00000000,250.00000000
0.39117170,-2.39993199,6.63543166,0.00000000,250.00000000,0.00000000
0.58881740,0.87175427,2.81801173,250.00000000,0.00000000,0.00000000
1.42366535,0.92435091,9.50355852,0.00000000,250.00000000,0.00000000
-1.76688351,-1.48539174,7.59079311,0.00000000,250.00000000,0.00000000
-1.24339555,-1.06033765,9.24783165,0.00000000,250.00000000,0.00000000
1.10815219,-1.28600998,4.89123771,0.00000000,0.00000000,250.00000000
-1.06086328,1.70635823,2.18663830,250.00000000,0.00000000,0.00000000
2.06076713,-0.69973561,9.92935472,0.00000000,250.00000000,0.00000000
1.10838261,-1.00255134,1.05969130,250.00000000,0.00000000,0.00000000
1.65494825,0.72509750,1.86325480,250.00000000,0.00000000,0.00000000
-0.42572466,-1.12388317,7.82430323,0.00000000,250.00000000,0.00000000
0.46273849,1.87276463,3.02317654,250.00000000,0.00000000,0.00000000
0.64588966,-0.67914344,1.89783922,250.00000000,0.00000000,0.00000000
-0.55950581,-0.99519806,0.82471177,250.00000000,0.00000000,0.00000000
-1.21738438,-0.36806016,1.22201653,250.00000000,0.00000000,0.00000000
2.04343135,-1.07681612,9.07792588,0.00000000,250.00000000,0.00000000
-1.55025927,-1.09003053,0.88105589,250.00000000,0.00000000,0.00000000
-0.29540486,-0.33499062,8.88857020,0.00000000,250.00000000,0.00000000
-0.43817219,-2.28383095,3.84446348,0.00000000,0.00000000,250.00000000
-0.26406066,1.34007684,4.14883623,0.00000000,0.00000000,250.00000000
-0.03824566,1.08030430,5.46460934,0.00000000,0.00000000,250.00000000
1.87082016,-0.85918605,5.27729538,0.00000000,0.00000000,250.00000000
0.53542480,-1.52341605,5.24374498,0.00000000,0.00000000,250.00000000
0.08268089,-0.96120117,6.21377441,0.00000000,0.00000000,250.00000000
0.59861762,1.62650398,7.76822012,0.00000000,250.00000000,0.00000000
-0.61620456,-0.28503591,5.19151953,0.00000000,0.00000000,250.00000000
0.63494361,-0.33009887,4.84448362,0.00000000,0.00000000,250.00000000
-1.00917461,0.08557943,4.73523592,0.00000000,0.00000000,250.00000000
1.46791817,-0.72265373,2.73877816,250.00000000,0.00000000,0.00000000
0.20048295,1.52538372,0.83212506,250.00000000,0.00000000,0.00000000
1.71840596,1.58416717,2.92177780,250.00000000,0.00000000,0.00000000
0.79994620,1.94939268,1.70049814,250.00000000,0.00000000,0.00000000
-0.45353111,1.15360337,6.81903818,0.00000000,250.00000000,0.00000000
0.90991578,-1.46253632,3.60948651,0.00000000,0.00000000,250.00000000
-1.74679212,-1.26343402,0.67923538,250.00000000,0.00000000,0.00000000
-1.12279558,-0.82794267,1.61649784,250.00000000,0.00000000,0.00000000
-0.59829750,0.30394996,5.81219912,0.00000000,0.00000000,250.00000000
-1.03530027,0.95998593,8.01256842,0.00000000,250.00000000,0.00000000
-1.12704281,1.68726758,7.70204414,0.00000000,250.00000000,0.00000000
2.26755911,0.30415200,3.18712003,0.00000000,0.00000000,250.00000000
0.81041865,0.09996275,1.98478314,250.00000000,0.00000000,0.00000000
-1.25904853,1.83562920,1.75990414,250.00000000,0.00000000,0.00000000
-1.66579233,0.80259222,1.23077348,250.00000000,0.00000000,0.00000000
1.99381442,-0.97535652,3.75669787,0.00000000,0.00000000,250.00000000
1.11052785,-1.68129033,7.24894298,0.00000000,250.00000000,0.00000000
1.97882713,1.23774280,5.84174934,0.00000000,0.00000000,250.00000000
0.64042147,1.05144395,6.59623363,0.00000000,250.00000000,0.00000000
1.12441859,-0.62644605,5.93024690,0.00000000,0.00000000,250.00000000
-0.60867099,0.54183320,9.49457370,0.00000000,250.00000000,0.00000000
-0.99668134,-2.17036394,4.04591484,0.00000000,0.00000000,250.00000000
-0.92688687,-2.17012596,7.98314519,0.00000000,250.00000000,0.00000000
1.26847217,0.10389713,8.01417102,0.00000000,250.00000000,0.00000000
0.34428624,1.25497669,4.83059646,0.00000000,0.00000000,250.00000000
-0.16477594,2.20544708,6.02032759,0.00000000,0.00000000,250.00000000
0.28897876,-2.16140418,5.98814520,0.00000000,0.00000000,250.00000000
-1.62799465,1.22592225,4.37957528,0.00000000,0.00000000,250.00000000
-1.24724765,0.49997002,2.73865392,250.00000000,0.00000000,0.00000000
-0.38698099,-1.81037358,6.57942351,0.00000000,250.00000000,0.00000000
1.00115493,-2.07214557,2.14700932,250.00000000,0.00000000,0.00000000
-1.02494314,0.85011641,7.93112337,0.00000000,250.00000000,0.00000000
-0.33928131,-0.06552989,0.72916430,250.00000000,0.00000000,0.00000000
0.87840790,1.69979462,1.96358246,250.00000000,0.00000000,0.00000000
-1.08695634,-1.09780725,6.85211858,0.00000000,250.00000000,0.00000000
0.47126566,-0.21849560,5.64328869,0.00000000,0.00000000,250.00000000
-1.86438836,-0.18556473,5.74826455,0.00000000,0.00000000,250.00000000
1.01324194,-0.62171393,7.62468491,0.00000000,250.00000000,0.00000000
-0.05805629,-0.60050999,0.78706505,250.00000000,0.00000000,0.00000000
0.06920737,0.56252419,8.76883674,0.00000000,250.00000000,0.00000000
-0.37524343,0.11344324,3.89620106,0.00000000,0.00000000,250.00000000
0.13186864,-1.92883525,8.14639195,0.00000000,250.00000000,0.00000000
-1.01607025,0.60949196,5.31917674,0.00000000,0.00000000,250.00000000
0.78684283,-1.30525904,1.56783796,250.00000000,0.00000000,0.00000000
1.19484315,1.23174569,6.66974697,0.00000000,250.00000000,0.00000000
-0.99903339,-0.25605527,8.94030598,0.00000000,250.00000000,0.00000000
-1.44297982,0.02247795,7.37966194,0.00000000,250.00000000,0.00000000
-1.29161659,1.42237473,8.95636542,0.00000000,250.00000000,0.00000000
-0.46074455,-1.62947804,0.27301481,250.00000000,0.00000000,0.00000000
1.77858215,0.06162684,8.21426934,0.00000000,250.00000000,0.00000000
1.43282857,-1.38719721,3.26279107,0.00000000,0.00000000,250.00000000
0.25968638,-1.48878199,0.01650370,250.00000000,0.00000000,0.00000000
1.44703516,-1.72120958,2.91588978,250.00000000,0.00000000,0.00000000
0.57609083,1.23521653,4.65079421,0.00000000,0.00000000,250.00000000
1.52027734,1.71715240,8.62392101,0.00000000,250.00000000,0.00000000
1.12598708,0.33450577,4.01361056,0.00000000,0.00000000,250.00000000
2.13217850,1.01677667,4.12726305,0.00000000,0.00000000,250.00000000
-2.28558028,-0.32736280,9.86835273,0.00000000,250.00000000,0.00000000
1.31393146,0.31177375,2.72639445,250.00000000,0.00000000,0.00000000
-1.42484315,0.67286777,6.29502568,0.00000000,0.00000000,250.00000000
-0.93530621,-1.59509432,3.79456529,0.00000000,0.00000000,250.00000000
-1.54415822,-1.31701748,8.16673631,0.00000000,250.00000000,0.00000000
-2.35708296,-0.21129036,6.18833953,0.00000000,0.00000000,250.00000000
0.02811224,0.19415195,9.00729750,0.00000000,250.00000000,0.00000000
-1.93197380,1.05364635,9.66904732,0.00000000,250.00000000,0.00000000
0.44427095,-0.18482618,2.00989117,250.00000000,0.00000000,0.00000000
-0.20524294,-2.09208350,1.82482457,250.00000000,0.00000000,0.00000000
-1.06966982,1.67101795,6.89513540,0.00000000,250.00000000,0.00000000
0.13987725,-0.52341507,7.07613120,0.00000000,250.00000000,0.00000000
1.27687315,1.04058455,0.51580085,250.00000000,0.00000000,0.00000000
-0.44327852,1.07796639,1.14777072,250.00000000,0.00000000,0.00000000
1.33418375,-1.43587172,0.51361265,250.00000000,0.00000000,0.00000000
2.34526082,-0.48813333,1.44279890,250.00000000,0.00000000,0.00000000
-0.05820814,-2.44210208,6.57788073,0.00000000,0.00000000,250.00000000
1.65720688,1.71821479,4.19398245,0.00000000,0.00000000,250.00000000
0.91033074,-0.24398297,9.46866134,0.00000000,250.00000000,0.00000000
-1.97102370,0.57933979,3.05470247,250.00000000,0.00000000,0.00000000
-2.15867556,-0.47087513,0.83374045,250.00000000,0.00000000,0.00000000
-1.28277561,0.50288486,9.41169124,0.00000000,250.00000000,0.00000000
-0.28690023,1.87968586,0.40319677,250.00000000,0.00000000,0.00000000
-0.97680773,0.87902776,4.86572887,0.00000000,0.00000000,250.00000000
0.88417696,-0.91842192,8.08609689,0.00000000,250.00000000,0.00000000
1.11262939,0.21413903,5.90750740,0.00000000,0.00000000,250.00000000
0.39842027,0.32564732,4.63428842,0.00000000,0.00000000,250.00000000
-0.81575701,1.64848915,6.47418053,0.00000000,0.00000000,250.00000000
0.13981954,0.48096936,9.46581014,0.00000000,250.00000000,0.00000000
1.22508824,0.89068907,8.49889828,0.00000000,250.00000000,0.00000000
1.42114440,1.11850626,7.79320375,0.00000000,250.00000000,0.00000000
0.39219768,-2.41781046,7.97143874,0.00000000,250.00000000,0.00000000
-0.61385429,0.23193139,0.13659222,250.00000000,0.00000000,0.00000000
-0.61802817,1.35831882,3.29419918,0.00000000,0.00000000,250.00000000
1.63546852,0.49684813,0.93272759,250.00000000,0.00000000,0.00000000
0.12220983,-2.39846211,3.34423841,0.00000000,0.00000000,250.00000000
0.21664570,1.35183502,1.48484058,250.00000000,0.00000000,0.00000000
1.19954064,1.82016507,3.34523493,0.00000000,0.00000000,250.00000000
-1.76578206,0.01909380,3.41709535,0.00000000,0.00000000,250.00000000
-1.64725878,1.70158407,5.16024189,0.00000000,0.00000000,250.00000000
1.49414777,-1.23900186,6.19660301,0.00000000,0.00000000,250.00000000
-1.03455628,1.07279845,6.00665500,0.00000000,0.00000000,250.00000000
0.11094307,-0.76882024,7.64574352,0.00000000,250.00000000,0.00000000
-0.32837606,-1.43619557,4.50691357,0.00000000,0.00000000,250.00000000
1.34440529,1.40434642,5.00982659,0.00000000,0.00000000,250.00000000
0.34954900,1.33732083,5.19310318,0.00000000,0.00000000,250.00000000
-2.02784527,-1.11499949,3.11876145,250.00000000,0.00000000,0.00000000
0.77925466,0.21271986,1.09769757,250.00000000,0.00000000,0.00000000
0.71195988,-0.62240895,1.51150478,250.00000000,0.00000000,0.00000000
1.98811782,-0.19457799,8.52517943,0.00000000,250.00000000,0.00000000
-1.45104331,-0.65873699,6.98412344,0.00000000,250.00000000,0.00000000
-1.47486192,-1.42900076,3.71090843,0.00000000,0.00000000,250.00000000
1.15489818,2.07538878,2.71272452,250.00000000,0.00000000,0.00000000
1.89715121,0.78019979,1.35360248,250.00000000,0.00000000,0.00000000
-1.26003617,-0.06517364,9.60837904,0.00000000,250.00000000,0.00000000
0.77182254,-0.57226404,7.60633781,0.00000000,250.00000000,0.00000000
-1.11459056,0.61664764,4.30010669,0.00000000,0.00000000,250.00000000
-1.82903615,0.84486258,8.08618486,0.00000000,250.00000000,0.00000000
0.81621318,-1.56624211,8.42551056,0.00000000,250.00000000,0.00000000
1.76943177,-0.13771162,6.03318772,0.00000000,0.00000000,250.00000000
0.13307924,0.96133606,2.80838517,250.00000000,0.00000000,0.00000000
1.03732119,1.08085018,0.70010654,250.00000000,0.00000000,0.00000000
0.51786749,0.99912276,5.76836885,0.00000000,0.00000000,250.00000000
-0.96982737,0.76817593,6.59024679,0.00000000,250.00000000,0.00000000
-2.22988349,-0.28907063,3.55379713,0.00000000,0.00000000,250.00000000
-1.04111176,-0.88941943,0.16773150,250.00000000,0.00000000,0.00000000
0.27590267,-1.36095160,1.24057989,250.00000000,0.00000000,0.00000000
-1.79516542,0.90869872,0.66904946,250.00000000,0.00000000,0.00000000
-0.22917869,0.18725177,4.13780803,0.00000000,0.00000000,250.00000000
-1.65915347,-1.30576508,1.46440190,250.00000000,0.00000000,0.00000000
-1.35094393,-1.30946790,5.15633833,0.00000000,0.00000000,250.00000000
-1.68937409,0.05468160,8.71204959,0.00000000,250.00000000,0.00000000
1.07352818,-1.69847141,9.40054283,0.00000000,250.00000000,0.00000000
-0.73348763,0.34021844,7.78715370,0.00000000,250.00000000,0.00000000
-1.54484419,1.80360387,8.92291009,0.00000000,250.00000000,0.00000000
-1.56977883,1.50352052,1.63223705,250.00000000,0.00000000,0.00000000
0.83274892,2.16861182,7.88479286,0.00000000,250.00000000,0.00000000
-1.98646083,-0.74500989,0.87712171,250.00000000,0.00000000,0.00000000
0.36964134,-0.71663537,1.34712571,250.00000000,0.00000000,0.00000000
1.06995512,0.77366137,5.18688958,0.00000000,0.00000000,250.00000000
-1.09563360,1.61455906,4.79469596,0.00000000,0.00000000,250.00000000
2.00351157,0.68990818,8.29789187,0.00000000,250.00000000,0.00000000
-0.35555488,-0.88393268,8.47822134,0.00000000,250.00000000,0.00000000
0.35892244,-0.05702296,1.86136810,250.00000000,0.00000000,0.00000000
-0.77658418,-1.89758255,9.39065641,0.00000000,250.00000000,0.00000000
-0.85479912,-1.18661546,4.50608946,0.00000000,0.00000000,250.00000000
2.17823676,-0.54997855,7.28218102,0.00000000,250.00000000,0.00000000
1.64905604,-1.24776622,4.51855104,0.00000000,0.00000000,250.00000000
-0.15495311,-2.41730824,6.12671738,0.00000000,0.00000000,250.00000000
-1.28172706,-1.97297362,8.23033128,0.00000000,250.00000000,0.00000000
-0.65146886,-1.28075059,5.89378094,0.00000000,0.00000000,250.00000000
-1.92882735,0.48314438,6.55637918,0.00000000,250.00000000,0.00000000
1.61706930,0.97209083,2.87566707,250.00000000,0.00000000,0.00000000
0.24682084,0.87923996,9.41839493,0.00000000,250.00000000,0.00000000
0.67938118,-0.09857146,1.93294418,250.00000000,0.00000000,0.00000000
1.36946180,-1.86305410,3.56468756,0.00000000,0.00000000,250.00000000
1.70575340,0.67181742,3.91497213,0.00000000,0.00000000,250.00000000
-2.09982896,-0.56319971,0.47088463,250.00000000,0.00000000,0.00000000
-2.16700224,0.01500577,0.64948398,250.00000000,0.00000000,0.00000000
0.97940371,0.02314512,7.02880865,0.00000000,250.00000000,0.00000000
-0.36797254,0.88867191,2.30394967,250.00000000,0.00000000,0.00000000
-2.38756200,0.32963371,9.56360722,0.00000000,250.00000000,0.00000000
0.35636725,-1.22533990,2.59165690,250.00000000,0.00000000,0.00000000
-1.12425463,-0.28429852,2.29353707,250.00000000,0.00000000,0.00000000
-0.96270474,-1.50466734,1.66855935,250.00000000,0.00000000,0.00000000
1.12801528,1.50845872,2.70033430,250.00000000,0.00000000,0.00000000
1.28723083,-1.50370538,0.09799580,250.00000000,0.00000000,0.00000000
-1.48261089,1.30399358,6.06855519,0.00000000,0.00000000,250.00000000
1.39664501,-0.32271312,5.16922236,0.00000000,0.00000000,250.00000000
-0.29948027,1.88428677,1.22401432,250.00000000,0.00000000,0.00000000
0.07232007,-1.29684019,2.33867099,250.00000000,0.00000000,0.00000000
-0.82465643,1.11345817,7.48892314,0.00000000,250.00000000,0.00000000
-1.48573963,-0.51156777,1.52124673,250.00000000,0.00000000,0.00000000
0.21652805,-1.76887010,3.40120423,0.00000000,0.00000000,250.00000000
-1.07379042,1.92181683,1.45790325,250.00000000,0.00000000,0.00000000
-0.36030326,-1.11080214,5.97524722,0.00000000,0.00000000,250.00000000
1.02219722,-1.25773468,8.87201163,0.00000000,250.00000000,0.00000000
0.94373406,0.26502320,8.93310956,0.00000000,250.00000000,0.00000000
-1.04901815,-2.03002452,4.45397886,0.00000000,0.00000000,250.00000000
1.61203665,0.02288263,2.10215901,250.00000000,0.00000000,0.00000000
2.22151844,-0.00426589,5.77550591,0.00000000,0.00000000,250.00000000
-2.02824269,-0.47768552,6.03285408,0.00000000,0.00000000,250.00000000
-0.91015622,-2.19996546,4.92290109,0.00000000,0.00000000,250.00000000
-2.20203971,0.17133617,7.42525910,0.00000000,250.00000000,0.00000000
-0.97860695,0.06049209,3.75959532,0.00000000,0.00000000,250.00000000
1.50873168,1.61524144,8.54997172,0.00000000,250.00000000,0.00000000
1.92201111,-0.03144353,9.50433556,0.00000000,250.00000000,0.00000000
0.70693978,-0.95907837,8.08789261,0.00000000,250.00000000,0.00000000
2.28042938,-0.22120670,4.18920120,0.00000000,0.00000000,250.00000000
-1.56156626,-0.05495121,7.25301965,0.00000000,250.00000000,0.00000000
2.16243428,-0.03975036,3.02258791,250.00000000,0.00000000,0.00000000
-0.05471846,2.17258637,2.94192307,250.00000000,0.00000000,0.00000000
0.30026976,0.46238384,8.80491397,0.00000000,250.00000000,0.00000000
0.46659599,0.15062737,2.14990936,250.00000000,0.00000000,0.00000000
0.02419171,1.94382983,3.74576293,0.00000000,0.00000000,250.00000000
1.49186750,-0.21496446,2.19976473,250.00000000,0.00000000,0.00000000
-0.34677391,1.69488919,6.38960666,0.00000000,0.00000000,250.00000000
0.22651906,-0.23566726,4.00455650,0.00000000,0.00000000,250.00000000
1.98248562,0.40298967,8.42236674,0.00000000,250.00000000,0.00000000
0.56872992,1.58070649,6.10419646,0.00000000,0.00000000,250.00000000
2.28778909,0.83744874,7.96908745,0.00000000,250.00000000,0.00000000
2.07918509,-1.20226549,5.16423898,0.00000000,0.00000000,250.00000000
-1.05982037,-1.75008604,3.73516187,0.00000000,0.00000000,250.00000000
0.39993352,2.40095065,0.19782626,250.00000000,0.00000000,0.00000000
-1.80768751,0.43352191,7.75540676,0.00000000,250.00000000,0.00000000
0.07427494,-2.19467646,4.95088293,0.00000000,0.00000000,250.00000000
-0.03495638,-0.96968843,1.26325998,250.00000000,0.00000000,0.00000000
1.42717250,0.47094718,1.53277689,250.00000000,0.00000000,0.00000000
0.33618724,0.07456333,7.95978585,0.00000000,250.00000000,0.00000000
-2.28585696,-0.30213202,8.05382377,0.00000000,250.00000000,0.00000000
1.54364516,1.34300097,2.31340662,250.00000000,0.00000000,0.00000000
2.00779476,0.63556919,2.24945751,250.00000000,0.00000000,0.00000000
-1.36857036,-1.32401785,7.32358367,0.00000000,250.00000000,0.00000000
0.55106705,0.25700271,9.64752052,0.00000000,250.00000000,0.00000000
1.04526727,-0.45375344,1.73798015,250.00000000,0.00000000,0.00000000
-2.20230260,1.00714685,9.28680841,0.00000000,250.00000000,0.00000000
1.84825315,0.64476218,4.68760469,0.00000000,0.00000000,250.00000000
-0.69963211,0.69308532,7.54500656,0.00000000,250.00000000,0.00000000
0.37928247,0.25835533,9.57038840,0.00000000,250.00000000,0.00000000
-0.43898391,0.49902624,5.21560831,0.00000000,0.00000000,250.00000000
-0.72978664,1.08493913,6.08156265,0.00000000,0.00000000,250.00000000
0.20273581,-1.97167062,0.14219034,250.00000000,0.00000000,0.00000000
-1.57217400,-0.43714492,6.68769994,0.00000000,250.00000000,0.00000000
0.96892109,1.17327308,4.67093242,0.00000000,0.00000000,250.00000000
0.16745302,1.25786254,5.93012166,0.00000000,0.00000000,250.00000000
-1.26225476,-0.83095982,5.14471709,0.00000000,0.00000000,250.00000000
-0.46090570,-0.53977852,4.43665108,0.00000000,0.00000000,250.00000000
0.40705947,1.32369358,8.82446102,0.00000000,250.00000000,0.00000000
-1.09048257,1.70447948,3.50511759,0.00000000,0.00000000,250.00000000
-0.72638204,-0.90750648,3.63593053,0.00000000,0.00000000,250.00000000
-0.44444303,0.64307340,6.14279727,0.00000000,0.00000000,250.00000000
1.25692674,1.81522837,6.82602124,0.00000000,250.00000000,0.00000000
-1.99723877,1.40900393,0.89184022,250.00000000,0.00000000,0.00000000
1.63802431,-0.46774616,1.95885663,250.00000000,0.00000000,0.00000000
-1.40204664,1.04519915,2.81387414,250.00000000,0.00000000,0.00000000
-1.73598022,0.19289464,5.04874168,0.00000000,0.00000000,250.00000000
-0.93897325,-1.85503107,9.11746771,0.00000000,250.00000000,0.00000000
-0.77167270,1.45580756,9.83077105,0.00000000,250.00000000,0.00000000
0.29194768,1.86825362,6.74153922,0.00000000,250.00000000,0.00000000
0.76056704,1.25727677,2.75568278,250.00000000,0.00000000,0.00000000
-0.47844546,-1.00858442,0.59869449,250.00000000,0.00000000,0.00000000
-1.20504507,-0.13291549,5.14324033,0.00000000,0.00000000,250.00000000
0.67257972,0.19711220,8.55003752,0.00000000,250.00000000,0.00000000
1.85704056,0.77849122,5.51676611,0.00000000,0.00000000,250.00000000
-1.10412280,1.45175549,3.49583667,0.00000000,0.00000000,250.00000000
-0.58387861,-0.56343413,2.98164398,250.00000000,0.00000000,0.00000000
-0.28418022,-1.46956510,9.12061240,0.00000000,250.00000000,0.00000000
1.79879790,0.56178284,9.18073387,0.00000000,250.00000000,0.00000000
-0.37574836,1.39090132,4.56675121,0.00000000,0.00000000,250.00000000
-0.91666707,2.09261216,0.81242419,250.00000000,0.00000000,0.00000000
2.17700599,-0.38759031,9.86841701,0.00000000,250.00000000,0.00000000
-1.79221355,0.13104850,4.32110464,0.00000000,0.00000000,250.00000000
0.22918957,-1.42291492,2.95714096,250.00000000,0.00000000,0.00000000
0.88633089,-2.22023922,8.00420453,0.00000000,250.00000000,0.00000000
1.14515047,-0.74011607,8.90324522,0.00000000,250.00000000,0.00000000
1.10717981,2.14957137,8.61092342,0.00000000,250.00000000,0.00000000
0.65175472,-0.48566761,5.95339759,0.00000000,0.00000000,250.00000000
-0.27463891,0.02242910,5.02030595,0.00000000,0.00000000,250.00000000
-0.25063551,-0.23657350,0.91467557,250.00000000,0.00000000,0.00000000
-1.45600269,1.71386377,7.03073962,0.00000000,250.00000000,0.00000000
-1.93988759,0.17855976,9.69743373,0.00000000,250.00000000,0.00000000
1.42340685,-0.68174914,9.61110001,0.00000000,250.00000000,0.00000000
-1.92409136,-0.58525774,1.68668524,250.00000000,0.00000000,0.00000000
-2.17176011,0.20375268,3.26728590,250.00000000,0.00000000,0.00000000
0.70740127,-1.01553275,2.28573872,250.00000000,0.00000000,0.00000000
-1.21324197,1.07718244,5.29879229,0.00000000,0.00000000,250.00000000
-1.94378535,0.85701325,4.78704091,0.00000000,0.00000000,250.00000000
1.09105232,1.52481612,2.77694022,250.00000000,0.00000000,0.00000000
1.60702816,0.17046253,4.43475666,0.00000000,0.00000000,250.00000000
0.83403880,1.99577663,7.81014860,0.00000000,250.00000000,0.00000000
-0.90483329,-0.77372254,8.77861752,0.00000000,250.00000000,0.00000000
1.02285362,2.14762524,9.57404911,0.00000000,250.00000000,0.00000000
2.15981782,-0.97529201,8.17055708,0.00000000,250.00000000,0.00000000
-1.85970035,1.31884457,7.17024192,0.00000000,250.00000000,0.00000000
1.71224224,0.15239055,9.36426837,0.00000000,250.00000000,0.00000000
-1.18655515,0.03062919,0.12758115,250.00000000,0.00000000,0.00000000
1.65207009,-0.67848446,0.13958749,250.00000000,0.00000000,0.00000000
1.58961060,-1.05373370,1.51808123,250.00000000,0.00000000,0.00000000
-0.85597003,0.44320448,7.24236783,0.00000000,250.00000000,0.00000000
0.94878199,-1.04442106,3.95889549,0.00000000,0.00000000,250.00000000
0.04946644,1.85497661,9.71670891,0.00000000,250.00000000,0.00000000
-1.26741938,-0.36289714,0.19504241,250.00000000,0.00000000,0.00000000
-0.74007793,0.42328473,2.46939621,250.00000000,0.00000000,0.00000000
-2.25045708,-0.25831741,5.92502916,0.00000000,0.00000000,250.00000000
-2.06170894,-0.83156788,8.84279619,0.00000000,250.00000000,0.00000000
-0.48749500,-1.38045713,7.75778321,0.00000000,250.00000000,0.00000000
-0.42079944,-1.94078199,5.09571440,0.00000000,0.00000000,250.00000000
-1.71749946,0.67712942,7.14982697,0.00000000,250.00000000,0.00000000
-0.87831965,-1.31940794,6.74534489,0.00000000,250.00000000,0.00000000
-0.46399792,2.32779401,5.38694037,0.00000000,0.00000000,250.00000000
1.43544361,-0.82276631,6.45785940,0.00000000,0.00000000,250.00000000
0.26299026,0.73820084,6.81595082,0.00000000,250.00000000,0.00000000
1.23434901,-0.37509884,7.19166576,0.00000000,250.00000000,0.00000000
-1.68708871,-1.04652879,2.10011104,250.00000000,0.00000000,0.00000000
0.22091678,-1.09962679,8.49810027,0.00000000,250.00000000,0.00000000
0.44239794,0.30644871,2.75985189,250.00000000,0.00000000,0.00000000
2.01212691,-0.66449752,4.54684936,0.00000000,0.00000000,250.00000000
0.92487898,-0.96343423,6.28835550,0.00000000,0.00000000,250.00000000
-1.00386672,0.82406905,5.61136469,0.00000000,0.00000000,250.00000000
1.94069593,-0.25866623,1.03564513,250.00000000,0.00000000,0.00000000
-1.18234859,-0.42503296,6.97763071,0.00000000,250.00000000,0.00000000
1.26707384,0.57246145,0.31058578,250.00000000,0.00000000,0.00000000
-0.83683818,0.35968327,7.04612711,0.00000000,250.00000000,0.00000000
-0.48164320,-1.42178233,4.35145234,0.00000000,0.00000000,250.00000000
-1.71728194,0.73706850,8.10762684,0.00000000,250.00000000,0.00000000
1.05212050,1.94491823,0.05703959,250.00000000,0.00000000,0.00000000
-0.50555337,-1.59869506,7.44370246,0.00000000,250.00000000,0.00000000
1.24209570,0.21413922,9.99070324,0.00000000,250.00000000,0.00000000
0.07231902,-0.56193516,4.45035395,0.00000000,0.00000000,250.00000000
-0.32537531,1.40497277,5.42165656,0.00000000,0.00000000,250.00000000
1.74350979,1.36318564,5.48896932,0.00000000,0.00000000,250.00000000
-0.21091957,1.41281475,0.72867303,250.00000000,0.00000000,0.00000000
1.49451165,0.35024048,2.16530382,250.00000000,0.00000000,0.00000000
-1.84852102,-1.02477535,0.48033726,250.00000000,0.00000000,0.00000000
1.03423725,-1.27303711,2.54742107,250.00000000,0.00000000,0.00000000
-0.83380733,-0.81817461,8.88883199,0.00000000,250.00000000,0.00000000
0.96965663,1.23188822,7.64099562,0.00000000,250.00000000,0.00000000
-1.21576276,-2.12387252,5.60009043,0.00000000,0.00000000,250.00000000
0.80881832,-0.55254850,4.24867747,0.00000000,0.00000000,250.00000000
1.91673873,-1.26607060,7.38561915,0.00000000,250.00000000,0.00000000
0.02312829,0.17164297,8.32318331,0.00000000,250.00000000,0.00000000
0.36888135,1.91435793,6.06349319,0.00000000,0.00000000,250.00000000
0.20357248,-1.14340584,5.21460923,0.00000000,0.00000000,250.00000000
-1.64922683,0.20254339,0.37996819,250.00000000,0.00000000,0.00000000
-0.62135081,-1.61472463,8.37968653,0.00000000,250.00000000,0.00000000
0.59782335,-1.28475739,0.22904170,250.00000000,0.00000000,0.00000000
1.32331761,-1.37877708,7.40770887,0.00000000,250.00000000,0.00000000
-1.87153365,0.74103534,5.75351207,0.00000000,0.00000000,250.00000000
2.02020519,0.25629499,1.77512466,250.00000000,0.00000000,0.00000000
1.03120514,0.31702788,3.17096127,250.00000000,0.00000000,0.00000000
0.58478538,-2.32272993,2.08700453,250.00000000,0.00000000,0.00000000
0.78057581,-0.72445439,3.55035416,0.00000000,0.00000000,250.00000000
0.45371555,-2.01960890,1.14547241,250.00000000,0.00000000,0.00000000
2.01663550,1.31532076,6.38052599,0.00000000,0.00000000,250.00000000
-0.60527399,-2.27008009,9.57112094,0.00000000,250.00000000,0.00000000
1.02186579,-2.19218440,4.12062225,0.00000000,0.00000000,250.00000000
0.89868611,-2.21354900,3.73338015,0.00000000,0.00000000,250.00000000
1.57307085,1.46300585,9.11138686,0.00000000,250.00000000,0.00000000
-0.69442512,-0.01553276,7.53071228,0.00000000,250.00000000,0.00000000
-2.31779810,0.02754246,4.30154441,0.00000000,0.00000000,250.00000000
0.58677282,0.77567634,2.25050420,250.00000000,0.00000000,0.00000000
1.19766936,-1.48844060,7.05324663,0.00000000,250.00000000,0.00000000
1.33653267,-0.68754050,5.66000558,0.00000000,0.00000000,250.00000000
-1.41812893,1.69301033,0.46848028,250.00000000,0.00000000,0.00000000
0.48368412,-2.01246634,3.75196661,0.00000000,0.00000000,250.00000000
-1.28376875,-1.79165224,4.64495438,0.00000000,0.00000000,250.00000000
-0.77575533,-1.63223578,3.56397884,0.00000000,0.00000000,250.00000000
-0.92130580,-2.21051353,7.53768387,0.00000000,250.00000000,0.00000000
0.73843272,1.13834076,5.54683783,0.00000000,0.00000000,250.00000000
-0.66612925,-0.12585257,7.18405005,0.00000000,250.00000000,0.00000000
-0.21602117,-0.14407732,8.81283928,0.00000000,250.00000000,0.00000000
1.84029521,-0.84051046,6.15567234,0.00000000,0.00000000,250.00000000
-1.46161338,-1.71449602,0.20560964,250.00000000,0.00000000,0.00000000
0.94858558,-1.08915400,0.14056557,250.00000000,0.00000000,0.00000000
-1.94292352,0.11519845,2.97373075,250.00000000,0.00000000,0.00000000
0.92886204,0.54297237,7.81512600,0.00000000,250.00000000,0.00000000
1.46254001,-0.37420013,7.90523666,0.00000000,250.00000000,0.00000000
0.54612763,-1.53189940,0.50380723,250.00000000,0.00000000,0.00000000
-1.06790209,1.81163873,0.98949833,250.00000000,0.00000000,0.00000000
1.35194199,-0.17546576,2.55596922,250.00000000,0.00000000,0.00000000
-0.67206317,1.61119935,4.12070700,0.00000000,0.00000000,250.00000000
1.30225100,0.52417130,5.11340390,0.00000000,0.00000000,250.00000000
-0.09705068,-0.35452812,6.80534287,0.00000000,250.00000000,0.00000000
1.19432608,-1.70846618,3.87243096,0.00000000,0.00000000,250.00000000
-0.17386092,-0.92613275,9.74640708,0.00000000,250.00000000,0.00000000
0.09704923,2.19345458,1.19105303,250.00000000,0.00000000,0.00000000
-1.06545948,1.34981660,0.43259499,250.00000000,0.00000000,0.00000000
-1.63024347,-0.90216398,8.73408510,0.00000000,250.00000000,0.00000000
1.15310262,2.08623452,2.39327881,250.00000000,0.00000000,0.00000000
-0.20768538,0.62323290,4.15867029,0.00000000,0.00000000,250.00000000
1.41042873,0.44323444,8.63875014,0.00000000,250.00000000,0.00000000
