0.9250968657967182,-0.21751955010458404,8.573278491378659
0.8296866292738809,0.8196466338128506,9.942375856195696
0.6736323158050802,1.3155652967642313,2.3759815663826056
1.9513615303367966,-0.9708321802206266,9.444042513653422
0.5731264208905872,0.8482468585356878,6.1199508999139995
0.7446044417758806,1.5213753928241118,8.389846971931263
-1.6196472772438388,1.780579214478231,5.816594432074524
1.8136529432327944,0.9034260342077639,9.68022451721215
0.41756914542171775,-2.323131371480161,2.920610205659221
-0.9935168449222977,-1.2482648205512226,5.850026660876406
-0.631045585081833,-1.227666515054716,5.0957976656019195
-1.2251033390211354,-0.2727316128252407,2.721108192365108
-0.15775171948199973,-0.0010604365167564242,1.2940192415479679
1.4117505075672019,1.2764245532326535,2.5464162006680446
0.10822430368275124,-1.3292638141282096,1.3718996819392726
-0.9051333429312952,1.8423630803649413,2.050585551285604
0.250217854066055,-0.3564271029558585,6.125311945440432
1.0078539065746366,0.11139729758596402,7.163856778192981
0.5454983304243674,-1.2020269767760712,1.9009982532864445
-0.05987114413355026,-0.5596518523337078,9.146590827324918
-0.5594432533261183,-1.5712403341832653,0.9278371262874086
-1.2479555733369454,1.9776086566194448,7.823871949768097
-0.23377622614337204,1.3830557645048933,7.560824348507948
-2.167065344619412,-0.22019855283858925,8.178262384533598
1.0229809495000528,-1.1751871927761317,5.7853114958325165
-1.1123841189994927,-1.7393833646989618,6.855840972424011
-0.532990865794684,-0.413750215960299,4.679365227036306
1.9401527065106305,1.11051388278633,0.47365998752009975
-0.7958330827486626,0.9909358491286778,3.690543416974583
1.500590725712469,0.7009339847478188,8.220966023668684
-1.1089500686930571,-2.158665987717276,8.247490409901605
0.7469750528419871,1.8480555131738499,7.6692485132655115
-0.1694985670168133,2.003634132524421,1.6462412277537886
0.46260450229065564,1.59730640693942,1.8747833992731255
1.0749085792896,0.9034878830305167,0.44501250077970456
1.503141760747837,0.8285289999841978,9.119411473468555
1.7623016184799754,-1.082737815047097,6.5422627461442
0.14981374217826499,2.1139649764810438,3.26947425605041
0.7065277592614378,-0.3424604717234287,2.64370028262497
0.8702753722038867,0.520890682965164,3.7961458232272594
-1.8772177936498722,0.3237979307268209,0.7365920326747843
-0.6235877285495358,0.26428338933417667,2.1136772292266492
1.3716981630589815,-1.46420441675838,7.401182378753992
1.299819917072199,0.5430090821954894,0.41317036001225493
-0.1822616104053964,0.7096329511943577,1.438700603490889
-0.6827857574346452,2.2436974670466627,7.1157842485105585
0.7188882269029614,-0.5696827331925765,7.893361351177263
0.9768148537581492,0.19252772682183752,3.7561889899577916
1.0326159670480057,1.2819777331103699,2.7345632707263046
-2.1881777343783377,-0.026840535218180528,8.02028197120717
1.2076608776046567,-2.038882002521609,5.657488672231482
1.4528744084558392,1.6767638151892175,0.7651480628789886
1.751005234919993,-1.3672456694444068,6.456125759528149
-2.0511676568214123,-0.8524802100118821,0.08336200269622673
-1.8838910448463606,-0.2736798871574095,8.79417151920736
0.4107862623132902,-0.9511229894943145,9.60260565454509
1.2343643886998812,0.20462170279175135,8.577813217390158
1.1973330340702584,-1.105184879673117,3.8230613788553236
0.14952690952734396,-1.8662749494775455,5.979629479659798
0.08482216740479473,-0.12934474873974625,5.153018714810531
-2.1252380960738733,0.5891717151471078,3.8296191918519327
-0.30198305677533904,1.131550927048051,3.7660328125339992
-2.3432716682520938,0.03190035283996488,4.815707636513609
-0.38405156767010895,-1.8784124153992106,8.659469706731567
1.9641821544040403,0.9511325486962744,6.138580661112849
0.7378317792070531,1.6732915480566795,3.2787976428271715
1.4616757629608486,-0.5990397539558039,2.3434136605178955
1.436280977667121,-1.2457125505105846,0.17552328973477582
2.3973489365216905,-0.18264580693263227,9.891539374302448
-0.2744280941425272,-2.27938760997736,0.43469636342572615
-0.34164505621190844,-0.37843524968048,3.3902713719869215
0.23066528036439451,-1.6960631408826508,8.840146933180428
0.47280696843992737,-1.8851659620643255,6.731903160562705
1.4130299010351988,-0.09726723320858448,9.915726449999836
-0.9033455686517741,-1.7143899571262307,0.1654990727350769
-0.4180089240378234,-0.2732849519977662,4.50088934602276
-0.8787875096675715,0.4354919840938152,7.848620554498437
-0.76376027252421,1.7065732725649034,6.867489170520277
0.02785366502224269,1.553612262155323,8.150905832418234
-0.474780757233639,0.43761585243846823,9.396095404083727
1.3476001381887903,1.983372680034223,6.533450771117123
0.8185964368890162,1.144225711922547,2.388210147889401
-0.8085852420445114,0.05050334647642749,1.867816769409989
-1.683964949376556,1.1117079833377197,8.915063406969077
-1.3642088755770803,-1.2313252857401518,9.216620378522673
1.2957256974521785,-0.8302447886781172,7.709276373661184
1.2116583144449042,0.20500349301608695,8.60597187223803
1.0659244190684718,-1.3774376834006976,5.275823413228119
-2.2199850224243214,-1.0146719454578008,7.6698294343322395
-0.04588184106856999,-1.4903349711946505,1.874490703034336
-1.62113421316657,-1.2883207708030364,6.732656820297471
0.9890802410211066,1.5216315299490373,5.382482147888111
0.06751362686320549,-1.3335126274631455,5.107723272895923
-1.9077206337670647,-1.295102041297843,7.330698777816105
2.3583018325316543,-0.1663421110262014,5.13154975449866
-1.5716680865383372,-1.259891021827822,9.229470008888699
0.7754932783306926,-0.4867466203501668,9.212333005900247
-1.1117140120647877,-1.757671500540864,3.5685965863870397
1.1570033550409573,-0.530836703961721,3.597130616257762
-1.7115789595431006,1.4925161935761555,9.536283592404116
0.8039832204189208,-0.02077251458514312,2.438061539454014
2.0395266380566666,0.20030495814366095,9.70998790505259
-0.20923022070605832,-1.8994396890591285,5.569369791077941
0.23221258904026362,-0.0961544035083716,4.180402940713643
0.6244691757633622,1.2529811254611647,6.7750230850293995
-2.113808933619279,-1.2023978938704214,3.939765192966317
0.35534231517623166,-0.05696773245859613,0.0691417014502238
-0.3188926008715473,2.2467883250127207,5.273777785677995
1.7559688680600571,0.03130910309196796,6.631763922420576
-0.40026321790018343,-1.348252014314588,9.655083239345247
-0.5707153618747337,0.7745130088480751,1.3761088152734413
0.10244618501040492,-2.2771500647558813,2.306588820700809
0.6037673849706372,1.3636117783382482,1.9452831058027487
1.4980041150920047,-0.8604755033656176,0.6659325187346377
-1.2224575690355952,-1.0361405259010985,6.8352870380079835
-1.6802368651381763,-0.4291895823147636,9.914805403729801
-0.05065522842406312,-1.4875808658894527,6.281423932565321
0.8745224288179925,-0.13313140444729107,3.2582373377731333
-0.8169046437435382,-1.1640388224102023,2.1787315819352795
0.19934918043811495,1.2821253394203758,1.496942129791885
1.1609487853725775,-0.07570893999531494,0.07657278548336977
-0.8852215003070826,-1.1770116036483,9.195874041670521
0.9367902189191007,1.9741561525637037,7.680000775698227
-0.8209078929537167,-0.7446886953129817,1.2077945333872708
1.1277933818297374,-0.6943628208055295,8.151931035405942
-1.9254040655860916,-0.3037324923420433,3.2896588956243678
-0.6995873962252698,1.5381601000334917,5.885046628756076
-1.3354636771176902,-1.8616209047914007,8.44742084755201
0.5291271976493184,-2.3078604373105733,4.522170476574984
0.25164689626245523,1.403091131438307,4.728804579894007
-0.45314120507145106,0.6739355647428146,0.18558442969102473
-1.773425377714442,0.4697557846363993,0.8953721561466887
-1.3513403373202224,1.8652869460279637,1.5526338808041884
-0.31138765541544783,1.4699436387344893,5.5070993169312255
1.6870129889493306,0.49029887494394775,8.66710976133971
-1.7392703629783526,-0.16044214293748454,9.095874741951619
-1.4627510110726851,1.2807201426259351,0.835500649828389
0.053945501268633296,-0.11541504276637957,2.7696212969425016
-1.727899800026791,1.3912772119550338,7.363863274437943
-0.27506448684654566,0.37320124815620853,2.051148649968865
0.45203848562569265,-0.7438679161887436,7.928968867201532
1.1953931907654485,0.547763275771294,9.889805420233449
1.1671164150331594,0.5051884268831596,6.124845311031228
2.3214961686494044,-0.6658480232251639,7.207057667712538
0.21513901466884947,-2.106422161099652,4.505710121713497
-1.0089644421676314,-0.34145546772890867,3.356621034426924
1.3952342105432038,-0.8016527433887204,6.032411582536177
1.6187497342572328,-0.38554510934474706,5.494212015165127
0.28764026152081335,-2.385625842974186,1.281727410763387
1.6986004213848551,-1.3008296966879376,8.030418587502048
-1.4885455575131654,-1.0551957934322924,6.9836097826530965
1.6089550634520842,1.4936614749567378,0.7006575991143449
-1.8510233391954232,0.03496497224494217,9.30602625756626
0.21516040353493043,1.4512106708849368,2.1838953929036578
-0.2469594336174852,0.39131175866530765,2.604943421604248
-0.8280388516150496,0.18162677232861274,1.770546835386736
0.9083137992437377,1.9902438780241343,3.8147461021055595
1.9164206660061547,-1.4542305745513477,8.996234804907479
-1.6143973306853732,-0.9892413224368632,3.6351169202210833
1.3149270628522283,-0.32040136644825906,8.852458816885182
-2.03043432223534,-0.855192061962954,8.053081738132045
-0.30581030371762236,-1.3628295719514467,3.1668122609652762
-1.321297568400482,-0.33681030849251203,0.7222407236157091
0.10368179651290885,1.5801595857101811,9.34049405661687
0.7567956428077575,-0.5489184900655226,2.1311982698315877
1.1084481173125056,0.7648126320031737,0.7140772954367325
0.18561587138855706,-1.3679034874940446,6.419101563983826
-0.5067232231880711,0.6950200540677429,7.979655594379511
-0.3585172206965615,0.8154440974395382,2.8962478537349567
1.004697628952271,-0.6895601818652503,7.654623497892789
2.258814027874941,0.761514666007661,3.146051800584936
1.1479288240143648,-0.596596853348819,8.226413027971848
-0.33252161815041015,-0.8162545425158366,1.3616408361571886
1.0664830574664066,0.14711857917548934,2.8759694998012963
0.8746664795908301,1.4413604481305198,9.45140096164413
0.041836570059847165,1.9179882149170773,3.4536583950797106
0.5048580548970302,-2.2703103934256506,9.892839599433112
0.8584740629635467,0.34413015117326284,6.540744749275911
0.9069498898069647,0.9114112446612618,4.853734964414503
-0.8315984429162167,1.6360913895976732,1.529857291890705
-1.9930771282246127,0.7897861055367521,2.248060603666225
0.4328238679199915,1.8323697499577494,1.8281084032592976
-0.5526060914504173,-0.36403436082820534,5.170786766954798
-1.2726208777802126,-1.4805351371814923,9.831503768416388
1.974561322394075,-0.9303677529852089,4.6874479999362775
-2.2373636763050326,0.987330428282751,7.280370174566421
-1.380523472728944,-1.8644497820043584,1.8314920131390466
-1.597516076758047,-1.2047015385790116,2.577013020683192
-0.3260790047259456,-0.7685589082765371,3.619138141920153
-1.0535208623427883,0.17757028087746687,2.52852148017774
0.7498084905755676,-0.6755738905715665,7.544378887533321
-0.09657389888795033,-0.5812934219351292,9.879883965099435
-0.750579263662861,1.010484823222845,2.0130012623136806
1.2573725034048744,0.38702315207803306,9.768437112705794
0.6217354226039447,0.12394889658341464,5.5291229312400585
-2.0595179642924317,-0.4860627991729768,4.67286520879753
-0.37971831669050254,-0.8312622653127045,3.9792186330024872
-1.237923864645679,-1.153635248945262,9.120697515376646
2.163564572022233,0.5933951942421334,3.885742965809189
0.08901226993003591,0.4573335717947633,8.77796406847519
-0.11563337409774699,-1.9963290984006261,2.835691811618062
0.803783654388008,-0.2722028574351303,5.651550937781387
0.5218337634971496,-2.017855160260942,2.371128402709445
1.109938082224728,0.40322450312288627,3.3116393388330567
-0.6551640755738705,1.7582976269281358,8.405771691738629
0.41716109195770257,-0.813334658902366,9.429140247610308
-0.010585491232118986,0.8314816059417562,8.073759560467755
1.2951812146831754,-1.6681929019210848,1.7873446809900673
0.8772012230359961,-1.848153977793854,0.5381388617021876
-1.5380026835339882,1.4573564983483538,8.827047606916935
0.06355294786532462,0.24194010280530545,3.8874633150515168
-1.6390449520928134,-0.34246428408557716,8.66265095788352
0.2553837771491478,-1.2790260880457218,8.770721498204075
2.3212758873497745,-0.3454910670653905,9.043847719178414
-1.7395712319346859,-1.1301660619071001,3.267340600440669
-1.4767972726239036,-1.6995853025154102,3.792567804124456
0.042561178554900124,0.28123313146533685,1.4075551429608568
0.04027041879400066,-1.9803697720371112,5.526582444272688
1.9445537047537889,1.324159042488218,0.33692738626300733
1.2296662810910661,-1.1662323173147349,9.381477317983117
1.7689905809089497,1.0176960765219887,2.9757996915766673
0.8205621255112169,0.9166355117337135,4.561832836529499
0.36132394985120025,0.07037740457076175,7.12109847904392
-1.1396907891565045,-1.1028873524415026,1.6148236356108037
-1.1368694998066846,1.6313333868528477,6.960090480716172
-0.8723710247310505,1.0372240854411516,9.657500762214534
0.16441830003739627,0.9321308367613891,2.827108753733354
0.5232987380753689,-1.0375880525599401,3.363872756541435
2.3955650995630697,-0.20362436639388745,8.268694414897888
0.7476401759410333,-0.058040796438930356,9.57107396487931
-1.9832438657879095,-0.32447043053941127,3.2285193775954024
1.4468858210241442,1.940387762591534,4.623530893366685
1.737945024769183,0.8755705578849979,2.9345031582956773
1.1350941156396925,-1.8224385449795735,9.631745268267716
1.7380130141430452,1.513756556264662,0.03374085959189865
2.3552478524909772,-0.4878775149192163,7.510789465613728
-1.2101220213325872,-1.4084103285429508,0.39281479945498465
-2.130447985100132,0.08210695184408842,6.18622278942206
0.5675084720336732,1.192677895888626,3.1485912413459225
0.30248331088700803,-0.4816329518532295,5.195594865743379
-0.9517628909343243,-1.2108191792580902,2.2196016454244605
1.7282655710448385,-0.07407458589269562,1.4211268541933797
-1.9801979839351742,0.8384608791704379,5.876210407091865
-1.951056673121514,0.4814392594820462,5.371590954253787
0.9857765022949996,1.446629599032531,2.113337583698063
-0.3825150052536604,-1.4371395164508465,2.980131142410639
0.788483252957355,-0.5015294537545657,3.812996074840056
2.2727181621950066,0.13994612165506337,1.3249607622970205
0.5661660946347656,-0.1590299129696236,7.408703503949733
1.733485162395958,-1.333573651741452,5.332802500609829
0.19577274777373027,-1.9711183271946986,0.2937760653121857
0.8788865770217228,0.056046210682891534,9.47482680360798
1.3468702424131305,1.4517934365782796,2.6962254942076047
0.2777683130107324,-2.4276659555670776,3.75354333886328
1.021294437354745,-2.015080933983125,8.654832489491014
-0.3220404266381024,-1.7095150338043046,3.6935629917147472
-2.0747723059228225,0.5503442006436967,4.6075623943758774
-2.4238491482231073,-0.045243730546720526,7.244566313496544
0.7757824046031213,1.259128548392308,5.7157111905082
-1.1266322691576662,0.3675096836755829,8.388444104400964
-1.0033161029208824,1.806427667110366,9.63618824141774
-0.5129504551783435,-0.14138409273454156,2.582237375818952
-0.8632656596811177,1.783433101372588,2.6423803347549413
0.6631972039229392,-1.1394281915603641,0.5259083972297807
0.9247027975364775,0.5193565302641058,0.15023708537152847
1.4433087035681573,-0.8058721901376643,8.280489719048653
0.2452054925586423,-1.0470697566698632,6.966322274964441
0.9967362757510531,-1.048490400883583,3.8307178167052056
-1.7144789493207804,1.6102925327036375,2.4230769341817138
-1.7321902509319507,1.6016114418621767,2.209076454556774
-1.9115067630402431,-1.0373374427739246,8.690081699714398
1.3363317596749398,1.8545767193126173,3.4174149669134257
-1.8185023060753798,1.1681928749191166,0.45815398765319926
-0.7437273535379336,-0.3342710721652665,3.805213152767024
0.732384548652643,0.7023859757316234,4.485163448480805
-2.2200518220078043,-0.7790829840967399,4.383480455232115
-0.7264568612788115,-1.441433917172865,3.9555039299209938
-1.2573417998742782,0.13530497544232464,6.408668786478623
0.9195135896495346,0.7636482968340808,5.804099853335403
-2.212196675373807,-0.902261432927198,4.4270903676096065
-0.053220549585587494,-0.5935723706209128,0.24885826796340105
0.813619262522967,1.151557906298125,8.601681713385203
-0.4745133548557005,2.25750341932467,4.082925449885587
-0.917587751549572,2.0200604843142558,5.391083979224444
2.0923892716817445,0.20452357222342435,3.5192996552646827
-1.9935604580196826,-0.2990690507040175,8.55424739554277
-0.5927933687307272,-0.10170334829353801,8.791248450810711
-1.2872612385402011,0.5397659607588086,5.542814006063318
-1.314212909196103,0.8088194836932189,1.7999771582532098
-0.4600627636566551,-1.5210285787841944,0.9731657995732035
1.3309975553183697,-2.018880117750223,5.521548100755488
0.9767061848955712,1.5481153164144275,7.858505294430045
-1.7740555689077402,-0.8669668586910496,5.754461563397191
0.11932260435063888,-0.18660275869905116,9.685439503251226
-1.0671709351258034,-0.05261669340040033,0.16696288725626118
0.5153210841584387,-0.36352121296912493,6.339884176177938
1.140786079844942,0.810911721144963,5.320992631897554
1.1043295485931972,0.548393868630744,6.921390280348407
-1.8030428171923687,-0.7970118217792158,3.9736871476957303
1.8285533861365337,1.3694893413605378,8.810964545697622
-1.8825238231321058,0.9209548807260475,9.762387599106095
2.1469793267272594,0.5330188002540904,7.605005091750121
0.4998271389256727,-1.2832255091742153,5.084126245082392
0.35080289866064823,-2.189990089823112,4.527070813847556
-1.1242504139922165,-1.6713461676168955,0.8109550585448055
1.187497755968912,0.5423912490601088,9.259756285389518
-1.6200471880683829,0.975362014637435,6.858858533006083
-0.6417601037193249,-0.2785021166316338,2.3471277869219254
1.738421533220628,-1.0123773503803277,8.879440961873406
1.135639646329889,-1.6087896643684958,5.429098244246873
1.6551517903070687,-0.6338159303115977,1.5704203275076056
0.023573013133291028,-1.165654354293046,8.422752435691784
-1.0233230699923908,1.9256806792001446,2.742084145256829
2.098879040170291,1.2001903688852535,1.4970460817956954
0.47466397948444455,-1.420392570369085,7.960910862899514
2.3043017487731032,0.4168954787202868,5.118444799267923
-0.8172379386659419,-1.8835080722572428,9.643626972753921
0.45805039532147346,0.8820015396248194,6.0673455397641565
-1.9495540356983947,0.4669586433421304,7.639146054964446
0.3138758906713576,1.7801570858139877,9.159180276518962
-0.731327196072702,-1.9924531173154545,4.455785966788818
-0.2774302017087893,-1.3606089389673468,9.168157713307828
0.972416672046782,-0.02197103080482252,3.0050607161281464
1.976832028705907,0.4655538458514592,2.0407022430323063
-0.6022926434302199,-0.37975059382559645,3.3540738247027333
0.6700666416759862,-1.0632611368038123,5.953795275828599
1.8805722656915895,0.16279466243006463,5.365616329061468
-1.8532879347639855,0.8018775420271297,7.541250786872318
0.20415550667818927,2.145632228678398,6.907713548024019
-0.599731699881183,2.2782521042367874,1.1239946530974831
-2.063844376008795,0.9926808379561207,3.1001305940773305
-0.07654107276760587,2.174264978316179,0.3801381903112089
0.31324318170433424,0.1940635804296732,2.909076313624409
1.8726921835341486,-0.354332658937122,5.081608362191222
-0.43991741741614643,-2.375706598055568,5.15726347239645
-0.2528388592031035,-0.6698302120310917,2.060419197586991
0.1640319524053379,-0.0315565659636777,6.234902117496915
-0.5833987799700354,0.9122571626768502,0.7496220363233119
2.0796894116530504,-0.44462419347678295,9.111337822707123
-1.6348843353394724,1.762416057869968,6.266723789469893
1.4268157907078542,-0.0913882175558068,2.4088750874171874
-0.07351960866002928,-2.31636517696575,4.162537932726185
-0.24398232669075512,-2.042507789245173,2.048687514120794
-1.2775396830169103,-1.850917559152966,8.821133862549171
1.0343987828810537,1.2307723708228897,6.774681609827969
1.4059631258862018,0.24028022685267067,5.362835005822769
-2.311564867266752,-0.4761886209994558,3.799374306809794
1.2650275653946343,-1.2011284605922272,5.976067998893052
-0.010671601955132108,2.3774766604985498,2.2930621591918685
-0.22105993393167525,0.6983593133812314,6.394298671309717
-0.20431702087248302,-1.9170888720552832,6.3746379710033505
-1.654524122786026,-0.8335116842131697,0.843056422911751
-0.6780981609421126,0.7726774470654494,0.7698917089396351
0.06817651968136296,-2.0826567182149986,3.0367295277603823
0.4451981830956531,0.8112167930219115,2.3293800472621395
2.090182346912236,0.47657343026580956,4.640495804252518
-1.46017357671948,-0.459825421444859,0.5338476374221701
-1.0470263621279325,-1.789385115818207,0.11913645712613219
0.6566664417525787,-1.1731285294335223,5.3815544275023965
1.4571389154295185,0.7454880722910517,2.755487320990065
-0.3592305559341725,-1.5505240097751836,7.625338598497563
-1.466631349146577,-0.46234878972135335,2.0158363825803596
-1.131861160572054,0.35559786092903156,9.600884118456825
-1.5780841363504552,1.259170414900011,5.226458015351964
-0.5695702478484321,-0.4519104883432572,2.2211644085255555
0.3566732743496058,0.404152965394435,1.7655704812616202
0.9065146117280503,0.8648180981836139,2.2908245205924525
1.7301363995777062,-1.5712240345998902,1.8977708334360188
0.12197087777409663,1.7972724801903723,2.892667468469848
-1.083710521993732,-0.4381477013461089,8.947300243973377
-1.0902153371374126,-0.7780067131764515,7.6484759679222725
2.0020164420653357,0.21501219915202185,1.0800608042013005
-0.48063880761353417,0.654343594993191,3.0682911815253666
-1.199043766948287,-1.980193977169329,9.061956379693429
1.6672774785370532,-0.9897159832529591,4.3443125065479204
-0.5481076716050649,0.45513948486936767,5.070785575260377
-1.3662560604140361,-1.2225716782906442,8.968072982751483
-0.41037648212185995,-1.3046366634080766,1.33416189253442
-2.0738721364513175,0.18210451321007892,0.35495371894498695
0.4126581838928852,-1.782888930483768,9.563653825486828
-1.0836166170539454,-0.8937045040081606,9.002552705235049
0.6500521522794339,1.364000569978394,9.413066778286122
1.4913270509612357,1.432766205432698,5.95490235636868
-0.24458582794030734,1.654598642268656,5.3940917866845925
-2.116657875857044,0.27737819802278557,2.826315435735377
1.8151675673358558,-1.1299137168962015,7.761239222405846
1.2503332802727198,-1.629965121436193,4.2619019988442215
-0.5353353644182316,-0.7672512458293793,3.1809998311037657
-1.9138901619976505,-1.1626256278593403,9.157452038971766
-0.44136304191734294,1.6249356063600722,6.316298584000699
1.5324432682670592,-0.5567243631313353,5.151380151308047
1.548995392429011,-0.15732516644752656,1.0493209180772578
-0.4230891158269504,-0.6001157168018194,2.148677061194566
-1.0527541792491908,1.3017808262524522,1.4177194571209206
-1.8227233736498534,0.2908368497645153,2.86615763683293
0.5169562175484808,1.5901143881373334,4.684463666638211
-1.2658543186534559,1.1965437778118313,2.099362832404866
1.7425098531818752,1.585934802031243,9.829633912117158
-1.841893350826693,-0.3424584078425698,4.975116437003337
0.2918636992380629,-1.2545800395825997,5.93080006852543
0.8062202513359069,1.1971245890349422,9.116173762930869
1.5699331816525162,-0.5465336833062383,1.1656149501007307
1.152372802378122,-1.8910820931992873,2.1519710564653973
1.4590608315410478,0.07670069859520641,2.178623440203519
-0.6409723142160407,-0.9812387226512126,2.277601219235655
2.228766186839259,0.39718690906532356,0.9520771291001751
-0.09834788850428386,0.317667487261867,4.4696304165844865
-1.0590050091159795,1.7094872955653324,6.865313606317427
0.34217883585891135,-2.3565412233605656,4.787773396016042
-2.437898780036542,0.14955281406782953,5.896729603079668
-0.5795370712078358,2.3548385411267265,2.5934942892398407
-1.2666571423410686,0.4056461300829491,6.864089886805016
2.4013773313107176,-0.062070759748425894,5.964370255973983
0.3792189992542882,1.320396720246699,0.8494168995563223
1.9334335532758613,0.7172053284584654,8.132635814291005
-0.20421743678726367,-0.6044086874569256,1.7287420780694518
1.9242690591463203,1.127696020365573,5.462374545867716
-0.19946854676966136,0.15600394369927778,3.596474739121267
0.08575372930578434,-1.9562469822445836,3.3575998408515737
0.18414728897583665,-2.0826313315381872,5.103367641199044
0.38050508249234577,1.8321735989666992,7.834316511120947
1.1635277572652312,-0.4365030023797034,3.8457196498868527
-0.4523633335241601,-1.1353002540292874,2.7614714265503504
0.4521000098297559,-0.9027913923695786,2.1864081752323585
1.1645836721676124,-0.560472955679193,0.5202628923961294
1.1949717800962263,0.9960418776819916,4.1505065453225045
-2.2157167602057646,0.8940302619877181,1.8791261682873606
0.40659892987795615,-0.8696648764353929,3.1468675062190865
0.5415509381140834,0.45932495127089357,5.242363937537695
-0.7202965194235905,0.7020731240185193,8.800351051415703
0.10732921117489846,-1.5754163541682538,6.312619464537898
-0.3709723323921819,-2.3592161330976253,8.369416617786934
-1.0327938960536795,-0.5784314110875041,9.10081215495055
-0.2163816534706848,-1.0936100065470094,5.050224115101953
0.29260335578319496,0.763638737384871,7.7225082905525975
-1.107862568059019,-1.817592702774379,5.51678083308932
1.1170275049239868,1.488540037206421,2.887513040067835
-1.3534647638369397,-0.2791288915466797,5.1565738641003644
1.8529653545885316,1.488249319429092,3.204051377636458
-1.59874265769857,-1.6911745002112164,9.723153410693323
1.210801991942723,-0.40984689791977497,7.484880216527028
-1.504808087313025,-1.4937955481180236,0.8095661873770332
0.8999621538649373,-2.035852022469051,3.3925272179134227
0.27851596621207647,-0.47106174036948806,3.5070535808717485
-1.5216889165145793,0.1741206924990174,9.244904793386103
0.08808178262344858,-0.199726415101646,4.003766396387577
1.0957205835961017,1.5273705012607268,1.0669874641232446
0.6754471599289645,0.2569066583416166,0.7518425132259832
-0.020772265022614086,1.4923170383476767,0.15486245904935192
-0.9828993323774434,-1.7695494386416781,2.12331913788299
0.10197550009715332,1.2409680274846746,6.068903768662088
-1.5595338328343018,0.3590718818079651,8.073878298746928
0.36923444619353746,0.8657187591191596,8.775792965133023
1.2797774202587515,1.3980755812875232,6.7448171185879815
1.9547834180370072,-0.8297539930637012,5.413009227269667
1.4272953026638657,1.5287167007319806,8.310749112223922
-0.9171131998070232,-0.0044912452567572436,9.233234382810306
-1.685687384822438,-1.6998770382390307,3.5351920081689836
-1.8282084196724617,0.1257922017921598,1.8622201470736377
-1.3064786273468834,1.836582860662519,7.54740865948871
1.183710020886414,0.06908630251194971,8.933299090378334
0.2989013910777823,0.24507407565751688,3.5663137309122552
-0.20345715321096033,0.8328265204875169,2.348478504249499
0.8416321192367084,1.5950901132619828,6.659683909365527
-0.2890301551681412,-0.8631691333021455,6.937337364163638
-0.713450473296021,-1.5442253221326843,6.818167284537564
0.5321458276997123,1.8219809430810499,4.369126440035878
-1.0946605357929828,-0.701952174937979,8.963585714330582
0.4729478998411777,0.08754745387196054,9.9107390303757
1.1509975589851267,1.5924604022157594,5.837326929829846
-0.3094827884150892,1.9694504123248617,8.280484408089512
2.0069756658082225,-0.9657963529143944,4.141963085503237
0.4919364800386579,0.20496600524367653,9.318706669448428
1.6491146321477046,-1.2825174852924266,2.148175946064299
-0.04658438465549218,1.3843585157310268,0.9227454074793096
0.4924273652675981,-1.998749939946827,3.3414506006955813
-1.5106760620450888,-0.8076030835845128,5.248673073888362
-1.846555742269277,-0.8063031146497055,7.131135207129656
0.4823858050306004,0.2550199723752743,3.0124874580794714
-0.2835315680455569,1.9592031981735791,4.980854274140494
1.753466610648991,-1.4651781251804128,5.180186789743826
0.16512868026550903,-1.2782243610918418,9.848771756061293
-1.3483636408725497,0.5110389073843151,6.86648215806798
-1.010099019217306,0.16138883420954392,3.943347493659614
1.4512516201734895,-1.7270583273693916,8.076375803606595
-0.30920299384068267,0.4436935882624196,8.761262994795825
1.8170174319395103,0.082614850055076,7.068715015753783
-0.7446600042783325,1.5002991007994253,9.053141830699639
1.8658737932133684,0.6534753647586191,2.7422115229920863
0.02385389144139622,0.00016189848088458736,7.65853006737154
-0.9411834723756747,-2.0042002145929585,2.9224354685483966
-1.3594646337314364,0.820224813349433,2.990580852663305
-0.7529555525815133,-1.1442149697493607,7.949057401008882
0.28042125617470826,-1.2212895145777816,4.379551811068509
1.8892012132214275,0.478036358415348,0.173417807501981
1.6499040750942278,1.0749386238851015,2.9763591586372993
1.259692437924193,-0.4895957227593546,1.8759008204289285
0.9883701624566089,-1.1067373572096726,2.4610586166863415
-1.5075682977489018,-0.5481025705282716,0.5570071952374067
0.17004364153264886,-2.361256222960678,8.607723452840302
-2.1531159590471955,0.5468447205370768,5.7290122130701455
-0.4527476625573248,0.5752791706077894,3.3950666114235792
1.2679205176976385,-0.42898897139344944,1.7439902688934972
-0.4896252241250932,2.3265112825238945,3.8555807304892706
-0.24058675730418758,1.0999563742072498,7.612954461671553
1.6996201537339337,-0.02541477788819476,3.016395159159079
0.9243526263271623,-0.7456989318372239,0.9094713254402742
2.208508734891967,-0.7735044429249055,4.67917632856533
-1.01991494060889,-0.3571117208516766,5.069463694600004
-1.0145827831256873,0.15666511474703101,3.3285900327535844
0.23277577521767687,-0.5081564041723571,7.858642724484639
1.1194297075111095,0.2758816054711603,7.311576822812972
1.9658468118658228,-1.269448955367636,2.167421109351438
-0.5947704754539919,1.0921578216527426,8.315764041064428
-2.0220378677439346,1.1401328054976947,0.24605127586161624
1.3674932152495833,-0.6445272871690929,6.029679216454413
1.0611564143688355,0.018082676057740832,2.534087860707983
0.22870648377528277,0.40816510067304196,6.975670292628036
1.9402712598162917,-0.945412130311554,4.418692369988346
2.051982553591483,-0.9344029270547191,1.4163789992488296
1.9362094489162027,-0.11367452398563431,4.654840500746683
-1.069493354202056,-0.19096267294575675,1.4174471549234824
-1.5065627233641332,1.2423007809838498,0.5483179428419283
-2.256242768035399,-0.9081456408827504,3.9068138443514258
0.27407061235396446,-0.5697357398567634,2.707054042791952
-1.7353948207527405,0.4000845050487641,6.716211029664972
0.7174012946787234,-2.2117759535547847,5.248366717908005
-0.9447778313942674,-0.353941411293326,2.8478335095751186
-0.40084816588616584,-1.7112046225915478,2.8796039179141286
0.610596128123017,-1.3602761610126122,4.459709747536412
2.1347376891829115,0.6020219293255771,9.824158524003618
-0.2497661757752706,1.5894088999945244,5.573141391193516
-2.1310003357510365,-0.8064154344602285,8.382083830155704
-0.8873536851798721,-0.16027858412655308,4.461801591336267
-1.563006454512026,-0.5219356872683986,3.5928530816440754
2.188529841879591,0.4126349677391532,0.793192186097802
0.6484573255103953,-0.10477053676239113,8.897746974220489
0.5588931221189616,0.5895487864982726,2.6988193871145527
-0.8287812028493272,-1.5232330034245842,2.1799531889004364
0.988265023022275,-0.4028841848276951,2.148903599824832
2.1508170843020804,0.07885810710757174,8.232732255663592
1.54485060233873,-0.8229023416533435,3.557197950109744
-1.2774631492844626,-1.6896410564058533,2.777145493415177
-1.0347521794253445,0.08869143396925512,0.8236251741696432
-0.1206751390076537,0.35875335306350015,6.285940131654433
0.15950765860572838,0.9401089236114473,2.014672009227297
0.2123700281632147,2.295589390682034,6.390925031726166
0.0037568425500909184,2.14714363953608,0.807804091368125
2.193607223442885,0.05019712825953383,6.874129539285034
-2.2972548637971695,0.25999422233804365,9.127320865153964
0.05422855807017856,-0.13003190219514665,9.052211197124482
-0.5197163426559622,-1.953849588832233,2.2680183085565178
-0.9668144776663252,-0.645231622595096,8.369375866932275
-1.6486946702075111,-1.8081964782224815,1.8697815334052292
0.21520716644302232,-0.40212429650761244,0.4523739220544609
0.12678499062893092,1.8518455539270702,6.922835344673657
0.006489427737977285,0.19343684927486463,8.532840346993092
-0.09399672311237144,-0.9958183964192926,6.6325782073541815
0.2084572763121808,0.7334041060903679,8.409356487267251
0.8654458057915966,-1.3966064567922867,0.9739790907864976
-0.36837812113786217,-0.6731943644933649,2.0947383986747345
-0.9445039831185886,-0.11332554133456266,0.7780555163728831
1.044279160342978,-0.2987647617457471,5.503736124395454
-0.40132131817400096,2.0388507934529767,3.914258297617199
1.3377973170890005,-1.0666135885895696,6.553651421594726
1.2445056123592222,0.8278561540245558,9.954463249644235
1.0926179835399144,1.0536626249235532,2.4508637903733743
-1.2252961670434082,-0.4115639693695283,1.5793905170337241
-1.0163806570404372,-1.613499589765617,0.06282562902016342
-0.2617211301185212,-0.3614567320158678,3.459478743550153
1.981241578299854,0.8953927944506908,2.2744179482689777
0.12523935610907583,-0.28786521598201015,9.163705558224775
1.1443559659619595,0.6712287318168321,0.07580382732776059
-0.43113295219152725,0.030483589748053597,5.915562283182738
0.18482779228207577,1.21679998681126,1.706340378710306
0.6094535744509169,-0.41559611051756895,8.29968912199156
-0.20153310379900335,-0.6544600945963713,7.208157631244431
0.8554222582582024,-1.1718069806698572,7.073853635327996
0.38032446548516624,-1.630650048659121,8.905463642241825
2.1306222558672117,0.8477716244123354,7.9488152425528344
1.6354768216463942,0.4645427152227194,4.686205272724763
0.026966779115640455,-0.0668433082578254,3.4732320590519485
-1.4015166387000688,0.6696337847665693,1.3648267366214295
-0.038789572768479996,-1.6220647365941328,4.319047418938858
-0.9141339314702814,-1.2252318548298382,5.295653464590689
-1.5111039009898457,1.5897414771875071,4.350278658201129
0.7625684806106577,0.8559163088260572,1.7190019944155133
0.854296448710845,-0.28242213350226203,1.9263045690142333
-0.6312403182695135,-1.1327983741390193,8.527918140299564
-1.3134279824512203,-0.7867067985188925,6.732162637784524
-0.32146637204993556,-2.2857063214824853,9.027801335462646
0.6646716889699026,2.063932512896812,4.143369911776408
-1.533686158497488,-1.6910804932479968,9.877268224866611
-1.1623497384308903,0.8197203318864521,4.171845700950669
-1.8472894190799563,-0.6101736774551706,2.8850015899110093
1.0489951485163025,-1.8032322438493265,7.2112255768736775
-0.3002920303092112,-0.2792864693423667,7.438732947131279
-0.8317187269753679,1.5433854635352637,7.277380151504021
1.087689442486082,0.2586298577112098,1.4018663508090634
-0.5331454286681788,-0.005417993057519001,8.331178663427321
-0.16302233133068494,-1.5951789641234726,7.416003708367662
1.1357113295445178,1.850811637143426,0.351130358516325
-0.296947211780562,-2.150769517055719,5.482702153663178
0.3431107791517,-1.9246350705691297,0.38384209731988417
0.017746307610864594,0.33576308322322496,4.425745500800302
0.11129183902634217,-2.2353687820841905,2.920669571110585
1.0419874392817357,-1.4540711647845788,3.8240480070720717
-0.9651194032235677,-1.175818422039029,8.27414533380905
-1.161620206723908,0.9322689667747368,3.4170765181108917
-2.1546396508792873,-0.1498505958863747,7.2355970683830595
-1.6281364396243676,0.965847494721534,2.8937219636320997
-1.250196572181656,-1.9553871239663791,9.34727248778251
-1.3866048419585357,-1.5074595280729082,3.706609776561174
-2.0447289987985253,-0.09349270199185182,2.6883485043152486
0.7296505973319881,0.9600414984011602,5.734831180969392
-1.5098736063298082,0.6370823850945871,3.493752723447272
-2.223031844068965,0.5167136254983771,5.674158120264884
-1.5679390336319878,-0.8317183165732154,4.7778964561651
-0.402691799739481,0.9854624293401829,5.712007760236439
1.750146164588089,0.4198723796807456,1.8686694986933572
0.03546875666318424,0.7600416731242705,8.335675959982812
-1.9343161436948466,-0.6381717254245747,6.2801449340395274
1.2243301864560583,1.9824714510975314,7.703380796298721
-0.6843251745527775,1.9620701016763213,8.448812413805795
1.2764563104008633,2.009672581435317,1.3241302319136872
-0.19209262287044393,-0.5335583176517492,3.502448955562072
1.3670526060892225,0.7019892231014807,7.889598041467135
2.0705573768224426,-0.04609045781369136,5.9895989224124255
-0.8065264223062261,-0.6606655708497626,8.38935810274336
0.1995841390279943,0.2126247039734523,9.336264403047386
1.2976542048667303,-1.2986563666818132,0.7846985477433943
-0.633618931427621,0.37423756910334205,6.472433262096122
-1.3304645096360608,1.1344018607101505,1.2844055574513513
1.9623402551772124,1.1340430814314488,2.202051482083782
-0.4203643091947642,-0.1940423100389114,4.714276531365009
0.9816634199859932,0.7119465560788318,8.04315184887568
-0.9020007527202923,1.1121886969490886,5.668604484722949
-0.5997471612469801,-1.033168792760044,4.224481778923276
0.5133659989845379,-2.1309987223065026,0.6977683462821871
2.178275109618282,0.3642830216051258,6.0056991033747025
2.386817096821611,0.005592683351403176,1.5010764244206942
1.6305656345074317,0.40124576241741,0.8066377047056872
-2.1657193918557978,-0.5209037669290919,9.237340788131831
0.7484301705568901,-1.6468467951288255,3.567797933679656
-1.1927730536165626,1.5081100234622884,0.17585100459825753
-1.1597286147412431,0.31987053308113467,0.19918639350765321
-0.43613338443415395,0.1370320435832167,8.263432439794705
0.5575818163932329,1.3831462322739767,6.892527107309592
-0.995900266456742,1.1981897269001294,1.4279285005629172
-1.3061420995439752,0.7147932334117323,3.3561983863655676
0.9560638728848165,-1.189934728585171,4.860306061292973
0.9782832310183311,0.60020533230308,6.740757362655564
-1.0015432618612394,-1.6505847268728917,6.720431404797309
1.857862011920058,1.2973105444363413,5.606278312734756
1.6520040569457193,-1.600623927828475,1.1611265619336286
2.3135970196891074,-0.4441655023257758,4.353985334161036
0.19246980041409548,-2.1706594403900503,9.416634933386728
1.675168615302175,0.9723617873694703,3.256547598033036
-0.42688347632422363,1.7227495828713921,5.415903199840356
0.609303689271249,1.8612999089301077,0.8388104659319406
2.3581310007673046,0.27914418204740565,8.607497085498418
1.6284324121602305,0.7541942439194085,3.396132568177166
0.953898285477107,-0.46003208470449597,0.3625462045949823
1.344906633126657,-0.1230481177587014,4.957656932492409
0.3219709103443303,1.1000212153866797,5.586712166720123
0.4637720271587721,-0.5411524780793933,5.0379533244575825
0.8521240195611032,0.540254627032316,3.449044854613017
-0.7873995820532658,-1.8533632767621586,1.1678189720488685
1.1932673444541675,-1.1620494010346343,9.105972477775213
-1.5289125105217525,-0.24227284851702044,9.623758143562464
-0.7231116155136558,1.204944300371,6.480336992180926
-0.33272063076222624,0.3898616739570684,8.497838086040526
-1.063451758321407,-0.7972656164361941,1.0408280400458614
1.937997586834903,-0.5415267047634205,0.1422089907766777
0.9673239369683194,0.5097408071661317,2.600900516894323
0.13354374740388633,-2.0444726039691337,3.981873358458886
-0.7578839815731954,0.07004744318978699,3.5521245022821093
-1.1540941747125675,-1.3188472652840275,8.802977177266605
0.0314078431840115,-0.2804766375805509,2.306628223760425
-0.6888031574011483,-0.4316788809568033,0.43778177209410907
-0.31135977421723976,1.773535760257695,6.591632244264549
-1.9680199456851526,0.996004490437457,2.1556192680411987
-1.2031390341314168,1.5848134637582858,0.13294954293485484
-0.3250761489252574,1.7660176442760152,1.2164234223965176
1.2384244058106348,1.4571132701546945,4.033916509842751
-2.300319339097596,0.47313683069818896,5.303927570276906
-1.255709083089317,-2.086980356108543,8.245404368056896
-1.5001199244834755,0.5773542347386323,2.8579864125006083
0.0306315066545689,0.25097673684233973,9.253571263307103
-0.3197379361492081,-1.2456499476459046,1.740275326517493
0.32983513442231677,-1.1340667489854812,9.934147947093864
1.9331305554254143,0.3488101833079756,7.017763716836052
-1.375761826905582,0.24651766655375026,1.040729589883227
-0.16966297296525037,0.6275693716605388,2.6371834375602554
-0.5409557980482359,-0.5442111352415784,6.349598469227288
-1.5529644629907229,0.0839818581328231,9.73798337412995
-0.9651257161196212,0.9382570192269906,6.852361362855164
-1.9468422616496515,-1.1514955687576292,7.286460089428616
0.8027875618466329,-1.9037693521692722,9.110484149858028
-1.1576004669145297,0.5887640530142707,3.0927365159801434
1.0147497144573847,-1.9865336827903946,2.5698419910484924
0.767298808582506,1.7160347593648098,5.656933120184501
2.027653132755902,0.3245593123693234,2.612239533039319
-1.5742393610494942,-1.24543797558556,1.0400232104885643
1.5443122471248403,-0.13570405099149402,3.334035699157065
-2.1101054128611687,-0.7473404053575096,1.5176510892086825
0.6190245630330435,-0.7499012411772294,8.751315326129133
-0.618462972570549,-0.9488484777428742,9.734205950957493
-0.5060622069017171,-0.6871643400241393,8.255394926947407
-0.8790703943338625,-2.214105878929415,4.5386153649481855
-1.3266543250434943,-0.9803296653238316,6.079953333280626
0.81660330993556,0.7900911456769617,0.9486833685045359
-0.6410036677957188,0.7315119763498062,7.684128072757548
-0.16257411647662717,-1.0407861010011026,6.131107871696361
-0.44133432584220195,1.1336658943076963,3.7660463640054678
-2.0040652037780977,-0.5055620902085359,1.4638492891940547
-1.4600601666424058,0.14861846769761827,2.944468399975426
-0.700745593186074,0.008012904547964909,0.4186555880038334
2.204691291262648,0.5840010029242735,6.179868515476906
-0.04634977042561963,0.4825612273142771,0.7225740235241029
0.03262665374008782,-1.898460960877212,5.119773915821067
-1.4906056459635642,-0.1235749885017884,1.5428270899575147
-0.3445474187569387,-1.2749593178210208,2.7532406692524667
0.915990012345467,-0.8305313138772434,3.439553385091468
2.317340052856701,0.7391318263010342,1.9782669728383906
-0.18475388964975015,1.1555188474382527,9.981008367696742
0.7549954158723027,0.01594092573070816,8.517299721162397
0.0499250963188203,2.3226380357963214,1.0369110001184856
-1.7790626249778927,-1.2698342470343222,3.6788671962338637
-1.525206307584599,-0.15579456097416056,0.3012457989166917
0.965150467538047,-0.08676827750247643,3.2799896223569935
0.48401572021937356,-0.881430721909923,5.155513312881476
-1.4886131263357822,1.4571868846011429,6.173888960004018
-1.0727002431841524,-1.4171038116128631,1.2213318386647098
-0.06905182108352668,1.3821306350281741,9.671097547462455
-0.5192345255285177,-1.4080194912279869,8.128861323126129
1.1999135707858049,0.27288938540914937,7.536974880050011
0.3801998678294475,-0.27095065395729695,0.15296840343163254
1.851368382341719,-1.1916292499958006,1.6630553033697004
1.0346241763853372,-0.9028856677714137,6.205053085376134
1.5020807112212446,-0.05745496004869086,9.173963794054327
-1.3827098899175563,-0.23862168388286323,7.960709378110614
0.3706765429914891,0.9119000668928736,4.830075718549738
-1.3681579105655992,0.40361543315777704,4.2292920800214615
-2.0876061977070766,0.0957869422256278,6.078771446413799
-1.9491982766428053,0.42892512663541454,2.369640932814839
-0.9571395534697167,1.2288097971793535,9.531404579167592
0.8653173451254024,1.2841825981636021,2.7642440139898716
-0.9835453970213955,1.4213700324806593,6.319971012478076
1.191263799243532,1.1052308379315963,3.972890539074446
0.40426731411682215,-0.6317865146066394,8.699123222007318
0.04885941578189542,1.7024349279219522,5.290656071756138
0.6185140056091375,-0.7725226832231542,4.745004056860892
-0.3067600274697398,0.3177266125486941,8.745714928192688
-1.258108456202164,0.6478076089981483,5.378001667714737
0.5583083004945039,0.24035775000023887,3.532041841093476
-1.5726741444058505,-1.6399933131082058,5.793350569446826
-2.185015566429509,0.567727014798112,8.743128868234715
-0.14852090991308667,1.8189573202725655,2.206303890038639
-0.7065214935671281,-1.1032257232313958,4.42693082568976
2.2052885914527636,-0.8793246514306009,1.1299060946917538
-0.7584841914094477,-0.6258277123959415,7.558305689649077
1.7136481458705815,1.053469710521116,4.721886558614971
1.1357910693302786,-0.8795531896263069,3.9998071888052165
-0.04728887579465029,-0.3427230839508031,5.220909031024336
1.759666090876965,1.3362531215739288,1.1463884891198628
-0.5360687505860658,-0.6349376135624185,0.7270494588428922
1.8284520035649872,-0.5631843087249103,6.733813224087059
1.720308252105286,-0.15856022518976798,7.100929383786924
-1.2442348936043124,1.671088196664004,5.687471594658975
1.7501659561678946,0.6603508055046278,2.4143741790037954
0.6457994973350838,-1.8258549413341432,2.756441321427804
-1.0897817984877458,-1.1396003993384463,4.42337147571445
0.7714270172043354,1.5892493316192293,6.51449895402086
2.175791378868991,0.33563984712788447,8.671418529250113
0.474040582439886,-0.30405052040504993,7.084491233405716
2.1183169290810295,0.41760546962361755,3.932222333471822
1.3243669937013363,1.9631957882480418,6.541624038363954
1.1228159324207436,-0.234526681237959,9.846624919512939
-0.42752219557322485,-0.41170835447438425,2.630080887810493
1.696595416383667,1.2444976325506687,5.311816877709251
0.8459916803453715,-1.4793933010197673,0.500592705957631
-0.7256924965173589,-1.8135928211384458,9.744139157327133
0.9850154302655837,1.7899830534598258,1.8817595585608926
1.2884540233821877,0.5636552491191222,6.928451856323955
1.7720129485659724,0.26178637959199197,7.607434576246151
0.3558539987411031,-1.3696947097014012,6.432650128677344
-0.39379301112066223,2.127127804393806,8.82137193538572
-0.041799628917387775,1.2683255878366606,6.874556525961097
-0.6167923420512541,-0.5337681813610867,1.6639700561967752
-0.6556353560048397,-1.021265265548814,5.96218170370452
-1.0648081575045811,0.0999972501268945,5.689046927926852
-0.9589691052062862,-0.9209777529346679,7.880175793862275
1.6289694493935276,-0.9751563185423439,5.011440067367929
1.1196256264231794,-0.12712562313514664,3.944896228792273
0.019179050405612796,-2.203718040543318,3.124596598472934
1.2412598461400586,0.6234613950578077,1.7468210415802576
-0.37372395729699454,-0.07062385237993107,0.4357682561290588
0.8153449765961035,0.6475557330044565,8.185645924632189
-0.24244986818304923,0.9293127229562118,5.010494637688854
-1.4188595025881607,-0.9659047819332741,1.0685768581194388
0.9224778682599755,-0.2985642890470236,1.6438514147585959
-0.05760928858035512,0.046158594260361646,8.404901629120506
0.7099679938375439,2.2703282114690855,6.691950163335033
0.29838185038682413,-2.1656712610559725,0.1227072033776977
1.3431028672476462,-0.5970660828331975,1.6964940398013395
0.859854676896172,-0.35762760053215986,2.7386228983829684
1.2463137964374342,-2.08678968826885,5.797738789956552
-1.2996038139976347,1.5638260223112033,4.862338329582473
-1.896914239048859,-0.960939936055348,8.576904493932634
-0.9876696585804312,1.075316237679276,0.5604089326473694
1.705889440877888,0.3886849782726011,5.829102415155138
0.3216235923705609,-2.0548703417493615,3.272872513960282
0.4790396978454845,2.279898649611749,7.625075945045891
0.16260440181100544,-1.1428491782837837,8.53957969399998
-0.4561248066705717,-0.5115366316899183,4.2931609790849485
0.3498963077359324,2.1757660344294165,5.18481746653623
-0.6942374019063279,1.4708912000795178,8.48224055681372
1.0299169523040026,0.538403360716197,3.2448485704033736
0.5413667679241903,1.1266791207072613,2.541543761982452
-1.8897981526959704,-0.9120916737383103,8.12640611816528
-0.5381834050687042,-0.5795201759264554,6.9470926171079945
-0.6982556051873688,-1.4976108168013171,1.6959797966707768
-1.3203405756465505,-1.5729289392453882,2.7097949510656183
0.13502628795293198,0.6152139399000117,2.5427866262257606
1.3428688599951386,-1.806050716090498,8.958837252615817
-0.09975583155387259,-2.099417721934383,8.523129669757255
1.2920812725895052,1.5747307321317572,8.957494159084149
0.6652004862967873,1.9821425360828835,3.4259894010361656
0.702550157001211,-1.1130824459037223,3.4955231023233893
-0.15090708442624204,2.2650015187635577,8.363115487639195
1.5402194636289068,-0.609014415533377,1.4801011652616503
0.3416968583858891,-0.9185433928583167,8.892693809364134
0.8416407417713176,0.688315326423808,7.291045222083461
-0.5896683493358701,0.16360698232244744,9.4415402799232
1.3037880165157045,0.2773922873041441,3.8396147189472805
0.38655847794569903,-1.5124231437792057,2.10929123069055
