21.71770057981768,0.014221152051838815,-2.7911030944458606
-9.533910346435489,0.005695206467007462,4.0319544262889115
-4.079821684316358,-0.0018569717313894525,-7.5064504672428995
-25.127870141985255,-0.10706856383997519,28.010910343345408
29.41845278513925,-0.019754726251052256,6.971992038565377
-54.97548379764468,0.1304590999833492,-1.3758341369398002
-40.37696769870227,0.006187706864941901,14.72546161853698
-24.171921377707854,0.03433068045232219,22.87702682351924
-20.74024602695479,0.034595120126703,18.33245164683786
-7.431416750474139,-0.20797999360505945,-9.810755121075323
21.396404886403488,-0.008981889836308725,-1.065554824692323
-13.203135976377425,-0.10847541231653773,6.0617030378562955
11.977303220072912,-0.07825274053069557,-31.09287625996477
-18.289993756636648,-0.03730208331206683,6.463254022120848
6.4060685911669,0.05434660996762358,18.984682611519364
-7.356832158646025,-0.153867166695546,-0.10881587201761896
-16.054313898378826,0.056026539600097375,30.828002667606526
-18.586924915862657,-0.06763101899079188,13.084310325448765
-10.329359661722933,-0.06015286529498318,5.215943803220842
37.33155505569408,-0.017399639502891813,41.46433010355507
26.585875566278556,0.06624786562720701,2.7783129072319435
-21.926471284368446,0.045612386296408416,9.310861055374671
9.011330994992395,0.07669078446631333,17.666615763695614
-2.23000439265316,-0.15476156337626876,8.669553620633854
35.326464636662976,0.03544648142012418,5.524205703473294
12.398560841453012,0.0647346336059112,-11.051910576478427
6.303081651095673,-0.16406979024776963,-11.12973747153487
3.384964997012175,-0.09408476093358625,5.845248485447074
21.75695885543107,-0.27733706230739563,-7.161372413513087
16.2081878193053,0.053996390568732046,24.474779811609277
32.38483101353674,-0.055656749158883884,-37.15755770805718
6.171157353408056,-0.0769535322785806,-17.484866687556753
-29.166234421854732,0.02552584192287361,18.854354722745583
-10.015475679463698,-0.041073339933623845,6.351632222037575
10.0825038761396,0.05323566473157485,10.526515916441019
9.135168349917233,-0.011647799709539271,-30.35783339371956
-13.163903182043805,0.008464753548669879,-5.387545979319018
23.130034890731352,0.07761491503598132,8.726939732381213
-5.420651873651206,-0.048702959207916646,10.99498703466838
15.308158828875833,-0.12464802159311346,10.314562356189718
-19.049980036686954,0.0730729587747076,16.179279860683522
-13.52469218146325,0.030054316895631636,-16.4628578107745
-14.12820880140071,0.028010532875978558,28.558568372688086
-13.620853020236671,0.16865777062050846,1.717944015267006
13.934004302517067,0.009591326393817047,7.114739376543934
-2.4780386174502538,-0.0737990897772919,-5.8611024852864455
8.420438829481519,-0.053321603730939374,-20.403548898178293
9.160655426308072,0.14781387249756928,34.64422764310832
9.324167094152251,0.05320596812593527,-3.698374722156827
25.486568534321478,-0.06203244494142312,-0.3135256754303364
7.851941657580132,0.20700106831602716,-9.635540430890172
-16.743858296157715,0.03655135257488131,-2.497170640220404
6.27175760866968,0.17305313210924864,0.10261277383162516
-8.677827382786433,-0.08493264259375036,-13.708500498154006
-10.707144877744046,0.04622643216487883,-31.072598996158263
-1.245992280787286,0.08417999487127009,-0.9927063706994781
11.14977315541293,-0.1985129227440981,14.766415527921822
-11.20506195249968,-0.031187448816477295,-33.87887581877882
9.396668724313914,-0.012104515853391742,18.730132565277703
-30.901230565981834,0.25416724175583266,-21.074193846434007
-12.434746378399531,-0.12545292729291715,21.924956916829146
-3.1343621138032844,-0.02159520504091874,-27.27096886819041
5.088049104600721,-0.06219752328446905,-24.822343135747467
-1.141820740928842,0.08669922077287404,22.794892632974598
26.552427931119524,0.0746449781828684,-23.776071507563927
-5.696772294299592,0.0759426988237868,-9.076821106926996
-15.170823624379464,-0.029209016556155615,11.961570602614586
3.6214568599138044,-0.005739679886580215,-20.789505370971032
28.837718138867615,0.012936207722113756,34.81014870880342
-16.113083236144583,0.02402131045161263,-21.58931058058475
0.35081903039266915,0.09673409025188988,-43.92924347439822
-27.384193463927524,-0.025307131374770326,38.70984965353168
38.28785320295105,-0.027751580684658207,19.494157171527995
-32.22410555813233,-0.2085116931924317,-23.379154118768746
-28.101105816431197,0.15933375660324905,5.261943901810735
-16.873875620933955,0.2064998402515988,7.708114261410815
6.015169607398113,-0.15640898898568031,-16.529194481264955
-24.087253046316878,0.05321105974511656,16.851381262689873
10.5437971648079,0.05020420421195087,-31.944917422180147
0.7774537841793829,0.12021247857315781,-25.008520761948645
1.2579751650870823,0.17024248573384454,-8.518599901139748
-14.254219884747918,-0.04652107594228594,-3.6647462624857576
-10.216406936843343,0.029841984618238872,28.75075721088578
-11.62431355596443,0.030631100612810422,-19.526799727917197
0.6302577796050861,0.21276237336841147,20.74087882647259
-68.97566900763154,-0.03225701653632519,22.341625027184033
-25.58052996152525,0.06433006096476222,-12.562322463138383
21.307374549559142,0.0030330990955124465,21.59915986216066
4.39431236777655,0.13578731239139724,29.79068850054646
20.234886530121777,0.24790617366429057,-14.768502965396667
0.6218371527250419,0.09518512928682737,-41.322782253118646
13.556320424993633,-0.018455460393373726,12.774055724967305
33.045293768625314,-0.19921719021341408,-27.262319118914185
23.886814980667733,0.08847859283299933,35.585836640082114
3.5094660070660395,0.0034841056953007128,27.447774571640977
-1.2099832663664134,0.06821091071257943,-18.429700706930173
10.317993895546456,-0.04949937671280238,-5.172972360978734
12.131336797365798,-0.14113669975078208,-15.218708578711954
-3.006349590282899,0.00700959092964655,9.965023619169429
-3.159360774477359,0.08124656863663837,-1.9430800457275064
17.285534647151614,-0.03218218981583458,12.736926771061315
-14.046142064397964,-0.12488513783480502,-15.18165581376742
5.108225959375003,-0.1477092679399384,6.729178656755441
-6.7449291161603355,0.0023147146593045357,-13.031342097002668
-33.18889383004364,0.04725923757794783,9.403413151270602
-25.90343736674301,0.09739964581267886,8.983156406960886
-22.500335916520903,-0.10618354839440543,16.848516062997415
24.475169042932965,-0.1601291256614279,-5.0803041800444255
16.048543556942597,0.04487439370277146,20.377171733726893
-4.0183067393448,-0.155479827458341,25.327412413383495
10.120129912979035,0.1824586406884575,-16.07912968127394
-37.39149643119276,-0.22829662872641754,10.57322183835402
2.9169172812142428,-0.05997796206432702,25.226300910138505
-16.17485831085603,-0.10231942050996597,-5.317216661229099
0.1576940706523647,0.045229430138822094,-1.8568748250413156
14.127233353692123,-0.11662536199998175,-16.065833889395456
23.786991995829606,0.030313944910201503,28.363749945094106
10.544983388858531,-0.08792148311960915,-12.048916915420609
14.565303065255787,-0.005402677435035553,6.86904716854697
46.84596843840515,0.008356818629713124,-13.292890109462949
-16.133207951276816,0.10063818014847684,23.34471439094674
5.583883567570117,0.2195790144488725,7.382259827952492
2.3147562127067522,-0.006400838487333516,-2.3871380980264063
-12.554094600251727,-0.0923301961599295,-1.0263279288974443
10.057928195764251,0.1697005691444885,-12.91017913139745
38.341673112529755,-0.05516986330284064,11.879684095463734
-16.415144382714946,-0.09491597973683784,16.877807884994315
3.3706863703467294,0.10915737177306409,-17.313510568614376
-6.998089702527494,-0.015131212076022749,-8.92900135379406
25.809260856506285,0.005655079427500968,17.695766877540848
-51.91911073696338,-0.01898688410083511,-6.811632305156433
-10.14031616669502,-0.047166311024849056,-11.198630386320549
8.956827098032495,-0.13915080877356978,-38.37692777701081
-9.447143080601151,0.07523185427469381,-29.3569207193492
9.045202522047058,0.18644394224373803,27.73014340456422
-9.345102774946142,0.1681656721911399,-6.299581239918465
-13.242005409393808,-0.057722768173862175,6.443322511211184
-19.798022703631833,-0.3143509947036543,10.736259554298968
19.10618311437432,0.11798748025739281,-33.22138612915312
1.2011878389234307,0.08731014815023641,14.107782340386603
-21.855964013888336,-0.033014733872191344,-25.408430041042838
-33.54336023706442,-0.02857304493632258,-7.8964824667258995
-65.48292503684797,-0.04130275006026856,-8.995670799961195
5.589071526671612,-0.13989352733651877,32.35152733212928
-1.895523294072747,-0.04692026870690182,15.068486552516283
-3.7844211811398583,0.05428871549847563,1.8459838751454245
-36.13461668040893,-0.08405897574598681,-0.39490671635027363
-10.01803545638861,-0.04114076503819597,17.532355771299443
24.438041591393652,-0.015502134260652257,-10.266741839112168
14.077807298587356,-0.050925005763295776,-23.706335543588096
-12.0686799897145,0.0012524344452676534,33.55869719650639
2.6528593792673876,0.048846621815985175,7.65674868474253
-11.617030775444517,-0.09667653001306342,-36.2227414628027
-16.320126155523205,0.0066770607349657,-12.01478424688435
6.698962476542414,0.0012798370364175756,-10.978712278002812
-31.09118031020836,0.03231435410241714,6.278486924766725
-9.726002421843202,0.13942021358664433,-8.974982254857657
12.41156576131676,0.12025906777227435,-19.008505184551254
-19.114267550242268,0.16219346282901065,5.161421388504336
-8.731309065851063,-0.1893934276252772,6.200873812624151
17.843990134034875,0.03628708202956153,-42.28087470789333
1.7631623608821454,0.04274331184236487,-34.398925543713844
35.5789910219825,0.04011324258325334,-24.147146263669153
17.601429197335836,0.11397243889484726,-21.339677760851284
-20.67463810709023,-0.07394396611499515,-22.72894596361852
-16.322039160418868,0.07994005351627669,3.634947594152078
-19.14339982695389,0.1347390005482889,-39.24007620051782
37.732571113622726,-0.0018645784653380981,2.3742529741957554
-6.24380033036931,-0.006202041594397403,10.81676113553607
-22.116589563724467,0.14975396815608127,31.884856400175238
-19.0664248188613,-0.19266888205645322,-16.50024069632066
5.787780716489327,-0.07370830026810592,-1.7932984621788703
-22.21394242202281,-0.02139745413867501,35.64543696015621
-17.400549589435517,0.021292379425339375,21.000686600598172
5.202441156476128,0.07878073380011018,22.620590428271896
7.0045102924536415,-0.005513095065926894,-2.085343437028024
-29.611310389401908,-0.04580591548618111,20.69454932532507
34.969274648104914,-0.020699824613472556,10.97152841494449
-0.5873904829270994,0.0027184160848508464,3.2885373246652225
-17.4720985611744,-0.12203520858228763,-43.99934106082248
-3.4627382460969063,-0.06258063293587851,-54.23270142996769
-32.12571957313842,0.0043163527706385684,13.760602934524908
4.9958150077405925,-0.05908857324167677,28.62667353466913
-11.429069795794625,-0.09688609201125056,-6.625913195180403
-31.865284487923866,-0.005189182270724155,-34.78978334388469
0.45806110419781254,-0.09519963931695063,3.4215078642518497
-23.13495685807282,-0.02490209227788996,12.17221226936654
-5.17329077973841,-0.05234199977786781,-27.962451639203685
-24.90403038953193,-0.03544179179693393,19.483916584997814
7.494465232085286,-0.025676576843832795,-27.542313640586595
10.612524312051985,-0.0070731901073029044,2.203304364039586
-2.772520611949678,0.1014074926105981,-22.09562294003333
-5.193121653055012,-0.0058590714627425435,39.775874111142556
21.706005099284305,0.1395472402428489,-9.306640220398945
-16.355198735179258,0.018725907342760247,-29.21131073551272
-7.519830925805947,-0.06492845990880225,12.737327152991636
8.54979433328329,0.18192260570779983,37.64711881935205
1.3414275294659963,-0.17392328731600432,12.572285485268589
-24.592978145954667,-0.0781290570410611,5.678127213158589
33.7730413083153,0.02221540482767197,-10.019504483330746
2.3531286604889847,0.11820244099705729,15.98584837333826
1.7360798331240321,0.04941230133169039,-5.588223822076341
-29.210917454477684,0.0740432849966935,-32.42310560511213
-24.880215161183983,-0.1755852915075211,-0.7190905562717252
40.500489537788084,-0.07922305537957773,-25.091095165825266
17.163157914560156,0.05507678550109385,-6.863942131949612
1.6170753495370978,0.017553007524925723,4.9515058678104715
-3.5413406730278623,-0.0033628254734522495,-17.73360409913691
-7.873040980097277,-0.006125120267200343,-12.025541350544382
-19.589005987733326,-0.09954432971214733,21.85566352614118
-4.699750003921018,0.056596115712387256,30.35491690025827
19.489607477097195,0.04419611512478252,4.437803173137857
-42.81700568908289,0.11890924597523017,-22.533136937633174
0.47917346422640195,-0.09435504904983402,-3.6969214480614765
-17.05997784397185,-0.010450907265788076,-21.033406379710033
-22.409272507289266,-0.08104651192448212,-9.415938284122925
-9.754514693654382,0.06067977037358055,19.40720016156216
1.4443840162742356,-0.08525707688321811,-8.260207268642427
-16.625570323513735,0.06271919750614366,16.691736854024267
-13.304359905138725,0.029387103857424452,-9.2289576536893
6.5067640891853635,-0.12128464838205177,1.8838102808927473
21.12903762029196,0.050363375821919035,-19.043856194061043
-5.034779156675019,-0.08853699404260501,21.93248280116357
-23.3918627841739,0.052860938561676334,-6.69278051296282
5.702213757540772,-0.0815875425742342,-32.450753413047345
7.6909801745244675,-0.12060806102929716,-29.266833407783288
9.789078456551076,-0.11560215653946818,-3.889621028272389
-1.8013653084779637,0.09557730925669339,10.925523548266902
17.027982425113024,-0.017617704239834747,17.805310478791373
0.3900233344048018,0.13148444245562538,23.02575224338126
-9.53318628472243,-0.12707713020398798,21.249993864462596
-12.691317634821662,-0.12517373891849587,-28.10686139097475
3.4742132650164033,-0.0037177213699258367,-10.329307038037514
13.360953630183122,0.010600787251595,5.8753631643382676
-0.6408650913270247,-0.14978671046851158,12.890744941435887
-8.704489522622032,0.018135953189083464,-14.359763820610693
4.197226173978564,-0.07393769926434494,-3.9055841328687793
10.676310252771632,0.006023365214628005,-24.21757445619062
-8.857276471424576,0.19091575883628079,-15.243413872666991
-19.042223164545,-0.042786699352914834,-28.62861408897444
-24.57622655808781,-0.2119910678102969,14.326419601863964
8.29004162329551,-0.048364366696817616,30.369834439065777
-6.47529373332905,-0.023674590624333823,-2.2014197255231247
14.804877780344107,0.04987800745051088,7.113936118519987
-33.92966809055707,0.0368946804015847,14.947958570730549
-11.65336338567763,0.012205209883354702,14.231365152510335
0.02675034649186982,-0.08182412263315908,16.897038096235196
-28.06404673196058,0.19976714607467283,18.015693902592638
5.399190672983644,-0.021955522329987657,-9.911373701317245
10.521643243721659,-0.06539221718518508,-15.613084252463402
-21.028427844143025,0.07819502760430558,-9.429919616760907
8.342342190889653,0.09924846060167225,-13.1198654380442
-36.55322468192276,-0.12102639480981187,0.27227949095383036
-21.077740383648678,0.09337353461027682,-4.232410367593394
-13.339084389704546,-0.024170601421631105,-10.664223328109784
40.70283507951047,-0.04041167278339932,-29.518435832749642
-6.390460775828436,0.004825161067831529,-16.350180635002257
44.49217488067166,0.13584759598566426,7.157521058418549
26.561353042240157,0.09046935437472899,23.934933146699777
15.178435613798914,0.11887075508256213,18.274973679608653
6.49693639949787,-0.03431725183426786,10.467608532830292
-16.317417605600653,-0.10204284000211628,-15.37667946794093
-5.2483472402707045,0.04650356641903286,1.09907914218748
11.609655550714361,-0.06242474251178444,15.972481699386076
0.12439145064576378,-0.0494580242225652,38.65448571485306
-23.34301803013225,-0.09639250583750686,-4.582071411298212
29.323989204990678,-0.04863406035888172,32.32544639581143
1.1130963136954337,0.02949395379575025,21.712866383413292
4.834570362491358,-0.05907792040591267,5.797525825677194
18.5742672473381,-0.08581871427093316,-3.262050439249829
-18.379403883086777,0.12853307621896035,-24.94326797207783
-7.027560346980222,0.1436765121072404,-2.3341529029700303
7.225723847705603,-0.08668868747018599,9.198991300713073
-9.648515168263703,0.08279722505912168,-11.297038485428633
-33.365827112805,0.001459143340378082,-20.94677478295868
-32.35239664852997,0.05659329607183958,20.80793111639856
-19.86667629112197,0.0023735085366915574,-21.356677895517045
33.2325259869939,0.024863564599056955,-8.055287738354869
17.125023952630766,0.045062285603652635,7.593125901040034
23.804636078281803,0.027559793990461903,-24.602503594559636
4.1397718352627875,0.06092566754214568,-28.635941264773347
-3.527446010163335,0.047042371123490946,15.465030769383914
3.5168279339345188,0.07145950611841421,-20.44661322911892
-10.075310836920456,-0.06951126802396505,24.763187851356317
-22.990468055323,-0.06518563490218506,4.438005904493346
-9.088008808153187,0.13921318906218014,-0.39437615881070026
11.106979254490202,0.03968208678248674,-2.105490864529404
28.873357915331148,0.13964879937629923,8.612052674990286
-28.28660339171652,-0.07370970370938293,-10.495587934083549
1.529078650634113,-0.1637165014570175,-19.688668156607623
-26.978124316614558,0.02581465112157015,7.831758035881552
30.23486828160727,0.0610264819249468,-4.543109414971596
2.2979012509539327,-0.04915910835588984,-13.234726492851959
-16.812159749039793,0.1105431220732168,18.8825989356883
-25.65377917814284,-0.08180976209148794,-24.156644575599152
-5.197364565269302,-0.12045928344019008,11.775783602299125
0.8032044517546237,-0.13735957050977463,28.228262441827418
-7.228701939733664,-0.13787194099079136,-29.59245418069225
25.511437481340415,-0.19447134980028577,-3.868480454199321
-23.41716874000291,0.027365419037197237,-18.76514570741119
-0.38723657798264055,-0.01651197207962489,-26.049866804864376
26.197247375293173,-0.044717035011345066,24.485287455687278
9.655937587215153,0.13770048452468908,-3.4065024337437757
-4.882670601101868,0.03471861692327501,17.115548999542888
-16.103383763911584,-0.11334267502799683,40.9195772437188
-16.02460017584402,0.014300752307868007,29.86798839478302
2.615384724691973,0.1392186417293001,9.453589733244085
-20.393860958629876,-0.20487995740103912,-15.549097700193562
-38.375439260420265,0.0014247561300660136,33.43454190736231
-19.09064821366816,0.043148098368656546,-5.925105839138412
16.200461016857204,0.11324676559966614,5.529155838644448
31.789251909388923,-0.16263463039135825,39.451555023696145
-21.54071373795718,0.07242740807664982,10.079246967723467
24.704500578430245,0.11138833264646864,-10.109333557223204
22.543749085190004,-0.058316680781460566,-14.837240581168846
-5.399828357280773,0.07659432773449139,2.5489159553785563
0.35982334677775585,0.10940079171502196,41.814089171245115
17.854054357656285,0.15021645470882966,-6.344005311306715
-11.079698192192238,-0.12202219691125243,-11.157837657887061
18.147818856988806,-0.07924202834372285,1.3175386197522174
0.13696474485382895,0.10601790075343882,-10.766549572473869
-28.12156547363265,-0.025817358166812215,-5.331353532147647
12.489916402734542,0.07647731782846781,-16.32825048018865
2.5307440260848724,0.019580935633550886,-9.753933771372184
-0.18386166747414112,0.10370963444387343,10.106185281637739
-5.825249524557191,-0.06651333821124099,28.02702607929659
-14.653187055603647,-0.28085664909511965,-9.224623261572818
20.214336224462258,-0.13486369147380342,0.7606385966278595
5.711469806574828,-0.11548252226782754,6.369992324586815
-25.418125783627094,0.10085747655040561,-12.002459683635946
13.708494618466311,0.009794958681817631,-1.046682147444896
5.840082917499421,-0.16571917913488948,-17.674502082707665
-10.577916454414142,0.06952550225309649,-1.1601927740157052
6.144696877693196,0.04684078902731281,20.669359773148635
-10.601913298677687,0.08604799294622167,7.837599579938475
19.79843435791828,0.03685395590196302,-8.051431508738055
19.30648070597101,0.020846937456414527,40.31813171095913
7.450818829952841,0.09436857797608848,-21.20126785430902
9.57892938821563,0.042954306056098936,-9.018371114478333
-18.58580545053541,-0.14703310317283924,20.246053965936632
2.5636310263460986,-0.04014291865592355,-12.09619442710771
-37.57712412350914,0.044536863000182975,-35.468032355850035
23.242296249719566,0.08683295784430975,-18.41668998964591
6.991344575809183,-0.05819597849025651,-0.7947089698379182
-30.178161222384958,-0.061530676277752896,-13.14344231151801
-21.844133230921624,0.06688906196269304,-3.3934572986400653
-5.406940070947014,-0.13083190421499302,29.274750330253116
-2.637042213215446,0.17684004356215927,-37.518936195167925
3.0206046635251766,-0.1848680615057965,-21.991398772943498
-10.523320131164265,-0.1052005535292589,-16.95665856325877
-36.97613436817746,-0.022373005245794827,-23.399829054000897
28.533489545832676,-0.14240413223026027,-32.760427683582165
24.07415916144146,-0.037729110336933325,-17.256988344932125
15.463593491884682,-0.024153793275771714,5.800401464558984
-1.7721944263816056,0.20384973224629,-5.401439649314837
14.94967423035926,0.0014751737702624725,0.3715040623556398
-23.595785978446568,-0.06814220373268691,8.531637749047999
-13.124152449777895,-0.08527832793042282,8.50252311757711
13.393881943735522,-0.05220911979718548,14.819405622694815
-5.288291393766783,0.1597603705759263,17.357264281654174
14.50119411359599,-0.17635498251531945,-11.952482076754478
-7.784797337805415,0.005283196747455415,-27.33854466855414
-31.994717924021835,-0.0344981761497815,7.1621512987740585
-15.967121694501795,-0.11497452087664682,19.062947954363857
15.695243410533791,0.0683028690188265,-7.343500408291436
33.134489523262104,-0.1690434757975461,44.63528836202447
-5.694515270884436,0.018235992324097727,-4.866122793907711
-56.11942581732686,0.191176200266485,21.847479915820184
33.44114025388108,-0.007633839503567211,12.854172779661026
-52.60051647996521,0.15457624526598157,-2.7296698324302415
15.19124644655269,-0.025224796124804674,-6.648650745694583
-1.1642132420441542,-0.1064977549475173,-6.78318976276945
25.010008419894806,-0.00899150082726209,6.839069442778124
21.047419263471802,0.06438035097722251,-10.462170801700413
-19.103498907427163,0.0225799662214398,-0.03391027845587419
-18.013706824993175,-0.0025970132045453976,6.620869727650068
-16.319630142163753,-0.07481959595747241,11.114812761684119
-16.715138145630817,0.015848558102068786,33.18984744752732
-2.284248859716154,0.027517223182231255,29.47329214530141
38.68784535498525,-0.024540422535481818,35.79892070463917
15.65562427474993,0.03218575669841896,-37.47140693257048
12.660505449348268,-0.015049721132571145,-8.021296196760295
-24.12742314940012,0.22055045004208984,17.194066858061742
14.016518038626407,-0.030355355694418346,-31.38093198463322
14.171285218370153,-0.13938792030498845,-14.79074412998855
-3.3553007532995722,-0.0300835598444517,34.59914833133548
24.76285474864749,0.1939362767369457,8.786230923046562
-12.54888846715819,0.0027717162447571646,-0.32100302769341804
11.668605621002497,0.057061240914843686,26.6059363666564
11.359931487069234,0.0024149756689349476,-28.203087823107033
13.145030633956345,0.06370004762160444,8.456300485601036
10.170641845142194,0.029693620577419574,-8.162302147404768
1.4898354079794707,0.12157421537954963,-15.12414933503827
-15.6060300834403,0.027391616300406235,16.32089370195968
-27.218449162550563,0.07281012895280818,-10.175976923649054
8.617372433329503,-0.23902508045514856,-4.32865380446032
-31.066603548746464,-0.009493594745232337,-2.1326679325190407
50.022523236266785,0.018555760093941647,-3.172611473718428
-36.69303438372356,0.0729488370527343,14.807937828679162
-6.350419203727357,-0.10805574489275721,-38.29543195023399
27.84504420098917,-0.04908585941809893,-9.469270318115935
-27.499046969182295,-0.042371968715397244,5.2298383978518626
1.9816146658879377,0.18459572090306103,-28.60125620505146
11.567942164290644,-0.1198851204749437,20.13156600547765
3.796160520489758,0.07208772410709645,0.5620597158441347
2.9724811455312588,-0.15327925441305298,-5.414057577542469
-17.8043098460808,-0.03994220924539352,-9.252863279123385
-43.72346385249279,-0.03282864956848756,-0.8068247327888214
-13.993484617168637,0.06233515074476112,-19.87614687357241
1.8223468702465218,0.0880191225811216,-9.388979706488565
-6.767012577745969,-0.033402532168570497,4.9644527059235335
36.495391314767375,0.12917782044576173,-13.229861170737164
11.233622615212717,0.02566858059494347,2.5817918443039463
10.138507363463676,-0.13861794289756574,16.36769934175717
39.175754285426365,-0.02477908204663516,16.50200338637291
-3.8201709483103197,0.12534908400210817,30.571521541178583
-8.46598064897423,0.01332610501788373,-1.589472638938643
21.424890807606964,0.007923228395961136,-33.681487523374564
5.015442100503088,0.0765867343041787,-3.476853978956313
25.649302477719864,0.06333794980317912,-12.807584746052534
2.069399262037396,0.16021218320212774,10.152740984551329
8.776356556409073,0.04593789118080327,-4.2682429265826425
3.3493589435416067,-0.005449311884275298,48.97338030453918
2.3247072230535117,-0.0017715911167613498,25.75263486813666
-6.380862224575136,-0.05246871624907065,-15.1467944870509
10.337771767757374,0.04976408198044202,52.856085389797926
25.367142100309476,0.039060615157711906,12.636249314731398
-12.573966497488833,0.044940752437491745,-0.06406110543096663
13.997235919959081,0.1799558973214128,-5.5160672268218205
-21.351079359077637,0.15201936820523365,-5.283434365209613
3.508551736813196,0.07302988637363217,15.973793550097636
-13.009922876560056,0.053923858694526754,0.8798553980114475
-11.0063896723221,-0.039932147151719055,-22.31357750334229
3.6862279728891605,0.13119626667278828,1.9751276601078458
-24.226855522693448,0.24357959589856787,6.817165228981594
-36.89292002259743,-0.11960153856673689,6.177586702543474
-8.047211989048316,-0.171150202253639,-4.6150204884679615
38.03101310296369,0.011056121820059042,0.962088449227123
-10.232546004361785,0.09854969661330121,-21.337364604682737
-21.688131546470082,0.21531525557466036,-36.101136644904905
-26.150631106927765,-0.10076197675473345,-27.683720581875136
-23.21963265441569,0.1361835382198501,-20.237409117452906
12.240539466595724,0.08004877318145018,-14.227926027986086
-11.24840625495144,-0.02935292899250442,17.126731233489668
-30.46422983095926,-0.029320833881609595,0.45485934632376074
15.412215437682871,0.11336462575060942,6.106834186652286
-25.88572635376147,0.11775812617561582,-13.903618779265736
2.8246002668545294,0.07027401201519516,-22.36652508095274
19.407466985482863,0.1609410307563476,5.981835355629832
-13.836513143048151,-0.1570801667553095,-4.378119800024045
20.011308298701458,0.0503003430926868,-20.16113647986949
22.319930357753744,0.02141120076272194,-1.1734366905077753
1.4015455151228784,0.04704699123956934,-3.693678121753371
7.413589452040917,-0.04138626929825843,0.3413991391693987
-46.52277579117043,-0.0266568748302264,-10.474158970278552
-11.192435813151988,0.0358246052628642,-30.046597998127076
-9.859596012801276,0.030992584544169106,-15.355344997101227
-0.16355170532443314,-0.16249806353127128,20.431891068937848
-11.404490432276988,0.030149026659566154,2.096823565304587
7.4799381678431285,0.025116134261950085,-5.552506204627185
8.424186913149956,0.051998356684138464,-17.49890407131112
18.972783513533543,-0.10760253598634793,-7.558554515328185
17.685972124633963,0.06844057617347236,-20.67144636398251
8.750536544489417,-0.06596427283993882,-9.229006961928782
12.054095640455438,-0.0926647586550042,-5.95137520697738
8.338339376046207,-0.04009236659452192,-17.977689161536933
-16.108464018077488,-0.03438508387428451,-17.647128572087205
-4.291499883421348,0.1369294542120661,-0.9437582077325954
22.906086336303197,0.06417996731356211,-10.63674557310921
15.251096627584113,-0.04451893646292909,-12.89619666954827
16.543928946301108,0.1510484228905238,10.515219816448482
-19.843617499139572,-0.044266451754940865,0.7746013629923028
-5.170207308186184,-0.19517951274034798,7.1800803625790754
-4.85335528184902,0.17847880160060806,32.37162430307085
-3.273387414170261,0.26746402438716815,18.29727392318273
-2.988721640819306,-0.014089902595058351,21.406186505318807
-17.66443922896473,-0.08731188837745323,7.6541829646089425
5.492749105123615,-0.031823663658016726,-26.913587845404315
6.148127359049683,0.010929220359780424,10.830750281489323
10.209326425921093,-0.23227822192616335,1.3810957635420436
7.56996277480257,-0.07206992850369737,17.435319002326594
-7.532662916200924,0.04580791949951873,-11.493073090006213
34.09202498526255,0.09615042698133502,-20.497474961663123
2.4722038555688846,-0.09213867857077573,-11.545868642458636
-17.68018650183096,-0.03612392888063639,-24.68851532005218
2.2970248275355596,0.05468451954613292,-8.56230916660503
-22.609460768500963,-0.12697091979272554,-11.280034690747803
-2.2013086899115613,-0.05585016735553094,24.227690590551664
7.302089842712025,0.015118951166671144,-19.37016834492164
18.49889566181058,-0.07114642955621912,13.541027452396206
-35.46429764463295,-0.07851353693506961,10.581441007563164
16.393786567893013,-0.06490904294014663,-1.6515850962154375
-19.546634780727373,-0.0795424591649886,8.989793431204127
13.128003480589847,0.14451791589055532,31.98064211571261
30.84146825222874,0.020416196016693713,10.685215665839634
19.58710498950815,-0.002898315425424165,-34.37668849110214
13.421316395210658,0.0685543374357266,-21.983604407479227
6.812959520232903,0.07460971518434655,3.309584447506486
-10.283494443758133,0.10933191023392748,-27.829941277318454
22.142748806035453,-0.045469744892116214,9.777580417911043
-40.90723014682561,0.006238709576315915,-4.981443494534713
51.28416092913801,0.03376363146602652,-8.969392234457256
-7.3136752158410765,0.021437192568566757,22.36247374782767
21.9093899802644,0.042449152857155045,0.7554256854413087
-13.072864185805253,-0.07333634526610211,-1.020695464845548
-16.182317362606092,0.09017680462837274,-23.992883831230557
-19.83264472685802,0.0262939650977393,-7.7791099782622375
11.894956876153682,-0.025820897417529194,-47.75779461398389
-35.95208890171011,0.029311782308508658,-9.679381596962248
38.9509207479839,-0.20399956234666178,-8.495776844236172
12.432179892159251,0.13529915595241856,23.525802463197575
27.637875079098947,0.08233869977778667,4.497352559011812
16.624532143269946,0.12469203176242778,5.323470574856216
13.530021862882498,-0.006216783869461784,-18.62765716812023
14.085998395221917,0.03920851507649988,47.68167013301549
35.7799056606068,-0.13512107268655257,34.88898393132541
-12.010689203022906,0.12008789365131074,12.421200905701966
37.70232542748052,0.04129510173724257,9.717739799839043
-11.310586404312183,0.1673083301998638,1.6753324028433876
-16.314929400512806,0.07001853002160754,50.6254473258657
-34.32595363907306,0.08548258066174502,23.23307361232142
25.185125501050976,0.24345311863887154,1.5447096344827607
-8.791706045765599,-0.023564042395007437,3.3483775569606973
-0.049675552470164086,-0.019705878694813685,14.978362994312096
-5.30865767947426,0.05957970483014635,17.48794008457385
4.753705474477094,-0.09771824591949936,9.084656914963196
-23.70703863822177,-0.08088238961275175,-50.526710204199176
-1.5325552300509016,0.0557518510884355,17.63573840949226
-23.29836068327956,0.06407626367448474,-37.27490980906316
-37.42387441355853,-0.11091815189911809,-5.34382756423825
23.65731891575408,0.031996988864263595,1.5266041321405466
18.13868597793484,-0.027067591620872314,-0.30714307338756924
-30.838624993234745,0.04488637704937641,-14.889249458476518
38.758297721138476,-0.1759735395516357,2.927569872182345
-35.44620025327749,0.27951555425038194,9.060391928929302
14.29665467697548,-0.05060264729374492,13.078068667883251
-3.881660876660493,0.07715219271345851,-22.14814984923166
5.54776746756135,0.032234621713252996,-21.792444607690967
19.73593226774649,-0.08574592536080385,-2.5902288132132476
18.959664165951967,-0.08167404377732676,11.002180976365937
18.661014507271958,-0.010849188565940257,-21.35583779434523
29.621562824447278,0.12222487658549519,16.457835320642612
11.34669262934887,-0.038669132807838846,-1.0555715030819863
9.040789554522181,-0.04995332712196404,-43.31667721324025
14.574736692646432,-0.10953685220058203,-16.563452337367714
2.623578297830806,0.05137848965933618,2.5059377039647956
22.195362536245845,0.04798573830975317,-21.70692847335321
35.17386352103107,0.10698871166061796,15.24869469457218
0.795480500052247,-0.010681361443813694,38.26927938724669
-22.45699578798539,-0.1300433513646451,-9.378068509962093
10.928989343592374,0.16092543260698491,11.739937916769712
4.332272264161838,0.002694013145806983,16.79983328338165
40.05523969651896,0.020757748166430976,11.088323585915376
-10.755588901648505,-0.053421623476658346,1.514210832021004
-8.827193722102143,-0.04925177138923359,11.187133294675128
-4.777375284099986,0.06762013062172594,19.73983279577112
-9.910374557220468,0.01787688806784879,-16.83868425618244
-5.0376226087877125,-0.043906912879638244,3.029480631853523
-11.700284065398156,0.0529572824894253,-33.493517070585355
-11.252798260907603,0.1140401561888521,36.606171842912524
-17.04166401430694,-0.20294436731404486,10.829933491976952
-7.59300275968924,0.003932710238369188,-23.49749990681225
11.64916995380539,-0.016553348974107245,20.663886056897734
12.379363213176624,0.08646660504822558,7.68774070576969
-2.6157241277440675,0.03611529920299047,-1.8735318819586606
-9.059255708124848,-0.013552432945004248,12.243809945248925
5.30896272233589,0.0852742673026921,20.191618277717968
-5.803834301233089,0.053732556841939595,10.172057084328936
12.029556646484213,-0.184057231723388,16.171681050262563
0.8978091362985032,-0.020730818341466038,-10.154594341113683
-9.235102129088407,0.015826536018882592,26.715989221296926
-37.22588575113123,0.005450244674900903,13.309590853258126
-24.398756437145618,0.052500987181438856,-7.003278759626676
33.503556162639626,0.018513780743637877,3.8167120734399274
16.13371089146536,0.026408175378907852,-17.148463252291627
-22.637157420191333,-0.1287974805119175,-5.032111890787132
2.128128131928026,-0.09934716724842607,3.17060331144782
-10.908441027880464,0.02838434994754472,12.359820454650897
7.926914267014965,0.04404897268199469,5.750906108620461
-18.066336422136654,0.06971853312246352,25.699966860725276
-5.8663254694566405,-0.05978777920608779,33.472823009219745
-5.600455477307693,-0.06847950569728965,-18.323765157150504
-20.779224300917456,0.04741632235242865,14.604103353731928
32.745284929414524,-0.017086683754635127,17.682192947926513
10.909289279782026,0.15280655208814473,37.194933099219696
-27.162207420594736,0.1598441863743567,-16.255541641229392
10.45184737014898,0.08563351256889838,-4.102463202659166
8.237224439502079,-0.18700905135334306,-19.45226938423748
0.802113621234155,0.058597996166013834,12.575443732899075
-26.899546483095786,-0.01183621052201108,-16.28273309859533
25.78929474125445,-0.1564898342696074,27.736495640857935
31.937230990878117,-0.1468851782218797,7.58886117802335
-60.43943401326849,0.006047388431048052,7.596624072742201
-20.956084435689668,0.08634180722306248,10.465749117127581
33.72573976990824,0.09544446876654457,-38.893377823147645
-12.81270683493043,-0.08470494953263669,-0.8209816383037241
-12.463573163041877,0.058407135118430736,1.12981322316321
-4.072407233142449,-0.04122719555806553,7.277647544744398
-2.258886437506176,-0.10786109273133256,-33.14812657023498
18.202111165913223,0.0178600891970978,8.192687714659632
-6.1595136752845905,0.07032335443536845,-40.496961515588424
-7.579033512266086,0.07426373438431744,39.76372894913685
12.646452751061926,-0.04146865229134432,60.92590723309125
-22.78672342782091,-0.06750171220451863,-14.940017816022813
-10.043087875062295,-0.040396424057927566,14.708869401384508
33.36882422231965,0.09881669891065109,-11.447843691495464
17.796899842019663,-0.056457018149531836,-21.347936049347492
-0.7152587617184264,-0.001212353988017794,-9.804427422153285
20.761539728741422,-0.11791663486837028,40.623724021807554
15.129730787694331,-0.033360053074419554,-18.723128199896255
46.05551739151029,-0.10225036083481727,-10.44409861112543
16.145186700513037,-0.060112987352043984,30.740492473493344
4.804530633217538,0.04370126381082343,-37.893587495358815
-25.016939434131388,0.17965640761206403,-52.3453640686456
-5.607202680776156,-0.13924644270182687,7.172252238700448
12.536467753958213,-0.21859801045389515,15.86495819404339
32.921181816808506,-0.0014901374799059272,28.247943933221755
18.251243655090384,0.08221584320014749,-22.85313006221451
-1.6902544651295353,0.007959899056032052,-15.065717434931166
-4.565548959031609,-0.014284562162159509,-19.79073330124168
24.126629923187757,0.027287279385935215,3.543203623521214
14.445363111771616,-0.04235084519335331,6.206760539543353
-1.9928034467726579,0.14419863778299655,-22.60893398089791
-29.318852417912616,-0.07805789514926831,14.245013047753236
2.591204813133929,-0.01900130666829309,-9.968232485121165
-16.12107825443788,0.16296048635788174,14.482727429031302
32.511625730396446,0.01708734616685164,14.54876247672118
-36.369951354412066,-0.08758550419481827,17.119920345069737
32.86242038159074,0.013922586377994765,-0.1108931946496724
6.498845724758723,0.041721919602334546,10.48932103802008
12.257729919747,-0.2100937334475987,21.172739564993087
-7.528314870217469,-0.03289025932235162,3.30438589463419
-26.11651290268371,-0.07073626426447992,24.096012771761927
19.06506774953755,0.03048377813507627,11.077256729396934
35.00241201119208,0.09551578885368192,5.86971033406515
35.43107321270414,0.04810712736244363,-19.487990710591333
32.03013346112503,0.03163694367502556,5.0878570776363645
-17.861651368667403,0.02142654409159896,-1.6995936687510618
-8.202176240949688,0.07964167033766162,-27.029132411704815
31.961993162346847,0.15041517607767663,21.389039774010005
-32.72768083020405,0.05685167947355918,15.639688183220903
8.372843314649455,-0.18126830402309066,10.598980344442326
7.068801570697401,-0.10326400228301896,8.062697560690497
-12.68441567054882,0.044159011284084865,24.436202971063583
-5.992066278062166,-0.021316674513004407,-4.769238350578865
-10.302828580333447,0.082833980004822,-9.411658591904455
-44.342133035516014,0.09299827289437397,11.930483588967027
-3.021201319241527,0.08771539810912184,-24.38552871138958
-35.25806401017563,0.13670277077371049,21.078810718049592
-19.372659450895128,-0.010278651669699638,26.25016141321261
45.223273544752956,0.036172041246693036,8.15719349447117
26.544043219980118,0.07119191993021548,3.8101946239499194
-12.255492777646662,-0.1417966106590273,2.314836992515187
29.74186868989891,0.09037232711210885,-14.334192253296411
-13.562218278665384,-0.07581895570903906,15.81323612007456
10.289443306686938,-0.10529602173736481,11.136149832900637
-26.087833594486955,-0.044329996183828345,0.13788033169415814
44.39261962955904,0.044328755672171934,-5.668871157973974
-20.27185786596228,-0.12741199162223385,15.769338150029814
-13.468998604211997,0.058140364645998734,18.47358313217602
1.8092392644144952,-0.0732867782969755,-14.813691671056354
0.8676692841164767,0.07562200754725934,32.20237901361091
9.459350858931387,-0.024901188728576426,-14.716879216817713
14.414310841884328,-0.015779519520756534,10.857709355726495
-4.06378662002375,0.09783212503526842,-48.479666971460006
0.6182317924547843,-0.144677242422182,-0.19673277381028248
-17.73546554065861,0.15445347201564097,14.66459735611975
44.25777653603218,-0.05246522416350259,22.420053041603826
-1.919737146431114,0.1734168979007431,-19.49368258867494
23.127199224589695,-0.09775649998338025,13.389858846753375
-29.540337542793402,-0.066879098319624,-3.3106087775766815
-11.440936976731848,-0.015932251654107946,3.646180910181132
15.429237964419658,-0.2542482882737912,-32.774786482689564
-36.07957132935684,0.0908610153966452,-4.696958628895188
-13.561528075435936,-0.02316289117443818,-21.392137011710997
11.229622507164919,0.056534417336951574,24.447793235633984
11.601226806878106,-0.10419034202934332,-14.093589769162662
27.969163281608576,0.08712833573990757,12.04809232535232
-7.628754354816483,0.1835518366966364,-8.978903863870325
-9.965674520941247,0.05388904764087554,-13.096595643570625
-7.723834121512342,-0.13758612455117822,-0.9916352829138798
15.808974381164912,-0.026456800520060317,24.63517046205623
-19.869821456443347,0.2356236002335086,4.899379489971757
5.510093844639325,-0.053854764007213174,-0.03929428858651911
8.578332341367197,-0.03719489543442369,-8.98772977603352
-22.906279564662036,0.06285888544572492,21.05385245493876
-26.752314910067643,-0.03962569939356039,-7.762635396470811
4.271268041672695,-0.06403987814425981,9.1970552204359
6.096755516280834,-0.21779904202224212,12.101064205647758
-8.56310693277779,0.09243401449439456,-21.515602840668446
14.8843184895616,-0.02470655707163985,-8.162107229522174
-27.365697100456803,0.07161941212682708,-13.024160760220006
0.7642179768621897,-0.07361455082642109,10.145241409491064
14.020580563115,0.0015849177160941982,-4.772482443727909
-6.9314703290292154,-0.0950172083433865,8.421421031660172
-15.227842533754457,0.010648422881187055,15.910698408226207
-24.679131468887366,-0.23459697266074164,-6.146508677764365
7.957611898098106,0.17629644956929247,-14.54138761293507
17.327497549794764,0.06188077268011263,-3.559963401944335
-11.131923601999619,0.08131450785481037,11.51342337016515
-2.661153428285064,-0.01609702921863648,9.708984392543648
32.433472503406435,0.14682517382581256,-16.755842934337327
-2.771228171758465,-0.04672586922649921,-14.955453509413623
-56.3046316251505,0.17548322904063596,6.814368425415285
10.612303181226,0.12987956720207824,-3.4333234145351383
13.006809902956999,0.04310182878405718,-8.411176967649908
19.523829071347315,-0.05006237837358807,-45.82009241168508
-5.460793274578133,0.010593725563590882,24.477373257552365
-5.111780249823861,0.12150403576858895,17.01698153831471
37.327341901929195,0.07501206661160954,17.01997021410919
-60.27945855797132,0.06612725938370168,30.802467139225843
26.786136915365923,-0.1017777820473002,19.851377895768778
39.72184270593581,0.1424236086002307,-19.254317470086036
-41.87273084622824,0.07220506996464747,-23.445249294859913
-15.416590559447583,-0.12061720560904915,22.02954141818723
39.458569408522145,0.0172100189059646,-36.53177445692112
-5.166378594589399,0.04356195284804017,5.103022106603085
-6.28567800360937,-0.01020649606557112,-14.38257238046388
-13.809622151444723,-0.17424755725640467,-12.492572899182488
0.1814286033562384,-0.05675040474073328,-5.4304913012046
8.875653809824014,0.04149538258018392,49.8670416902287
1.8064123675829211,0.20162716089527546,-32.54265942774545
-9.50705811248936,0.2082320797710036,-14.1983372276758
-19.559769062808776,0.021807381541954843,-20.32542709430043
7.428976871292562,-0.16554508270886437,-2.173387455915424
20.94491938867926,0.1285802843752659,-7.004200656789411
13.502675263573876,-0.11297147579697425,3.5022264293341276
-6.850673329598224,0.08426403574981722,2.2664847014349467
-41.17733348862104,-0.15127498619877985,-6.238201761554079
3.7000356374985417,-0.327141569909364,28.857057252772897
10.840012520754565,-0.03355599773138201,23.704660597620325
-6.295208441326745,-0.05655950070488367,-6.568575591976069
28.814549176267285,-0.06735841351777987,-2.665297226102652
-4.2666516879900405,-0.14385198607011623,28.742326831573287
-4.276045078940689,0.03843333333804775,-1.2493020394286811
-11.600782299295428,-0.04681968678925438,6.195467369248043
18.924059873199703,-0.08268346268459806,-12.23818775679874
2.316029157645747,-0.041215417298171825,-13.719634926356699
-4.949179886296585,-0.03840778592248456,1.4398562307905922
6.359392973961665,-0.30930260089384676,-38.04951633524946
5.258923331583558,-0.08326997739339534,5.553031516238873
30.20434666419806,-0.07757056750736846,-3.088487460659092
-12.905108662990038,0.04046513833869477,-6.168858716556434
-48.07274099463501,-0.00043581459557650643,-29.7745999697589
14.380578639805382,-0.04647947178915542,-28.20337464869506
9.344100698853282,0.13129431623510462,-7.121242252693525
0.7206528305144926,-0.1322872445501543,-27.763427697601518
-0.5414072812691012,-0.05338197211096249,17.359735712038507
-4.111378074884328,-0.1512046759125626,-14.116971888761654
-17.443118003159007,0.11451874044811315,6.312933630414653
-13.570617908725444,0.0893647541465778,-19.447440758115743
8.840010455743766,0.21121174973368287,-5.345326631252236
3.3638915383221817,-0.059680378419707164,21.69985140564514
15.305225815819856,0.05624900303828552,8.777103367830078
-1.9442675910320202,0.0024368142256256855,9.376109982118075
-19.790546381864868,0.01621555677930209,5.276561230206087
5.0145560237589635,-0.08378500821020468,6.695872135425189
-17.260223779760402,-0.06482697694473337,-49.39157031151411
20.731843665547125,-0.01077561142389763,-0.04693999087542171
15.573217395224075,-0.06994803732322818,-7.481379896609608
40.59576124186657,0.006655931667564049,-31.036427779807973
39.82296445994401,0.017747493856183655,10.59864060812396
-5.288162897335999,-0.03675050232359185,-15.134440993545786
7.127497237606299,-0.14382054086801238,-2.990568979564647
24.270588469466432,0.04861125357196664,7.368681804914333
1.4513106626048637,0.2108484257620007,11.689287463089745
-1.090644998531033,0.04158115134179252,-10.672388285943272
-4.360146496921306,0.027660761464449114,16.784497100004913
-13.438750980070163,0.1561727943069514,-56.3739474938398
-22.86914447465724,-0.06985392863700618,-1.8934241701541588
-0.8488423462232103,0.034214591126661004,20.69035283172537
-14.134428442318054,-0.052242910195522685,-40.897943774868565
-7.696800201053028,0.022709808477337213,27.85988250380364
-21.60772188423109,0.18269855648024952,-46.92890094412015
7.091891240527809,0.11586495276297225,47.51981966998078
25.26775882217859,-0.023025694297849526,-4.832086955733354
-13.116694348220776,0.18617198100479637,-27.537381054800242
21.328663990674528,0.001939930077003035,-42.00440807184616
29.11290792910297,-0.02765525338523474,4.854987861343599
15.703835542465486,0.03814876218181806,1.0396340236591932
6.868337315576452,0.09340313752578337,-29.370203507303497
9.77822962630121,0.053090116733304826,18.66633433585897
-8.003555794958203,-0.012193978044951481,-6.551479201457109
17.648413807108653,0.08172249996710076,7.854742763541244
22.326332017242994,0.07918097568995996,1.3781290162883506
23.788639902287166,-0.09771097529099235,-32.81937927386634
-2.115726393999153,0.1125554583533755,-19.429137043749957
-30.592916604080138,-0.048076590124812045,12.17640317587649
-25.22093048232469,-0.0322489286918737,-13.657256941141345
-11.045041394796332,-0.13068006933304385,21.817416420599717
14.244581465804867,-0.06158205195316684,2.899780228425418
-11.948240566623786,-0.2860900217226213,12.262706036710737
-27.497939283503197,-0.037222901722076186,-16.152288234574588
25.072574786039294,0.1359210838642644,6.464511716783843
8.27352979116725,-0.029510241804568446,25.51610584647138
26.86435672064993,0.15565889045877634,12.396267709462679
-37.797948016498296,-0.07819503635830122,-5.296033791084692
5.7121714934343615,-0.037616993499258754,44.739342749575066
27.77720069219598,0.018657947844287558,-1.1777559131925406
-5.756489865316443,0.04097574032709932,11.098188219521944
27.59526756689275,0.016315979994482293,-13.125540390808542
-50.45588082537919,-0.07443249732769616,33.891944800848705
-17.89639652486428,-0.10171454003013276,-8.476142129163103
-6.702429763061616,0.17603699396207553,-14.383392086301004
12.582754150082387,-0.09574829371854054,-10.46756522617759
-18.215349425941266,-0.02216648788557382,-20.470791545122978
-10.20749197667308,0.025567014157325815,-46.2897266240452
-30.09211714744129,-0.030099447488341688,-11.595109371894756
21.87033939498853,-0.045073210598464857,-21.07441815602288
7.050864064910699,-0.08288507963468554,-9.321054427673833
18.337141516065806,0.24247409870940995,7.218780678868524
-23.044143489170242,0.0931602351141087,22.208934282383233
40.65700263421242,0.06586723998334527,5.94041174442385
25.189851789725207,0.04150968661779469,-31.809295463642712
14.222660247806907,-0.019886438136471007,-10.387772424690437
-9.937053042385065,-0.0314879984756882,21.04993929228998
-2.7503607561744388,0.1501639518800297,-6.360519530777562
-7.630390568102864,-0.22254228336441254,3.1245988220467997
10.656582669408783,-0.08420254044323199,8.746853955579457
