0.046338126121410694,15.628325200351266,29.154700735658015
0.05681162152578201,-53.61475528086657,18.07454768485462
-0.002548170114049471,34.91163150083145,-3.863955453651562
-0.012242461747549721,-1.7506586291410162,34.89945142168847
0.0421105557984854,-6.792733815688176,-34.44949864549517
0.0232021543552352,-23.82348625128629,30.391423385257642
-0.07845953374461147,-0.13408871893642896,25.04011980992955
-0.1884075374090266,-1.118080932473559,-21.049604104959005
0.134507798477318,-5.433376080599679,23.66732223872985
-0.026925536888316788,-33.09543453993533,-4.494235194009724
0.012425952930400537,-18.620267676316228,-32.87113620550283
-0.06118287079766338,9.042552941512549,-3.8085590519918746
0.07563616030935003,2.029030566015629,-14.453833357935173
-0.10464382705411149,-1.871969297795175,-18.870475202357085
0.031171227586783614,-19.803872048369332,-13.927036487526527
0.08587743610967798,-19.99117872551439,18.505006982557788
-0.20081562858631058,41.058081837042586,-14.346655413118834
0.04441712825366689,-12.81979222154938,-22.219550007961793
0.04616770033208704,4.75148080964442,11.892978119243605
-0.06337740562724853,-17.14286751198327,-11.253961021944834
0.14022708207226953,8.872020416923208,-17.90990189724571
0.01122312452861623,-35.35242932204012,2.2726693677263974
-0.0899805211427993,-23.146107444887303,10.721342025562032
0.09001298397536163,-4.306510672435505,11.301280602215238
0.16111304038222696,29.12536654474666,55.73840570937417
-0.09943690756702203,13.313821967764344,-1.7949302528231856
-0.0056491413681437445,8.760729225356648,-6.489508366290977
-0.06756249871269271,0.5996779744141744,-28.95825761420529
0.1121568386303601,27.563230652879696,-48.35619756291132
-0.07368972360103822,-53.584959130716854,-21.240339069673503
0.022768685447609658,-17.903875541673383,9.947700745257166
0.008157293105923304,2.978457292843894,33.46851733136372
0.13445811671650337,-3.2410386269185754,1.8460315335672588
0.14043106322244867,8.96598231322017,2.9377867141620353
0.09940328846300768,-17.395666589230785,-5.409949422755752
0.04057036346889882,-8.313885995294738,5.360139389491022
-0.09686292921212931,13.21190013327393,-21.616563618191876
-0.06113212681778906,15.518100243240088,-15.572295954424584
0.0019338034571990074,18.583054063657134,17.041322936321567
-0.15583377666717274,-2.9884442135988225,23.249832306786068
0.13108219790865536,22.882326460152157,-12.4169417960106
-0.2655594134749259,18.479297862755587,-6.0754488385539585
-0.0769432454649175,18.38884422372085,-30.072795185258542
0.08599885967902024,7.037450323603725,10.479262327645815
-0.1012109761761034,6.192958712831354,-16.31086953238403
-0.12251415816678368,9.690773555822759,-16.873259243874653
0.01800436478471479,33.41173464736968,2.9506091708106945
-0.19179677446764745,-0.06834324426064159,-6.544798333565386
-0.04592812732034217,6.630927435649417,31.669799281894875
-0.08958792050698304,-7.391231398562544,15.556519709917897
-0.1605770944437755,-4.515004744644632,-13.841218869000166
-0.035193337048626004,14.323501980255731,-1.939574191257636
-0.1644025211447646,25.150930763624054,14.292181676892866
0.028994301614182674,45.493049828243606,16.54963289356878
0.016940083546911823,2.5301578084976795,-12.36024579958389
0.022518820473827045,-16.654544392353664,2.05468525663682
-0.0634632351683605,14.684336336466114,24.691849450787767
0.09032579145108113,22.984107176006635,-16.37236614962179
-0.16571678970358092,22.95307748437473,13.009351270039918
0.19637476124194095,-1.798870846545313,10.909174083040716
0.07459102549912458,-10.77569620549922,4.358384408280413
-0.09805078696860103,13.375660507643957,4.003550118048658
-0.01754980309794325,-9.517790713775385,11.70095972369117
-0.23432994311479433,-24.482841065744083,-23.377787098733055
0.048837379329822884,-0.7205658859471376,3.710230689466832
0.12637875031094073,16.787781031360094,12.06331746184382
0.01406351506545915,-2.879647723129068,-13.004693426764984
-0.08777635589770588,-16.388425967437858,12.989061587995144
0.09355462918460722,12.836347764160818,-39.34821558096719
-0.055455516713986644,-7.9563023684184575,24.67272858246574
0.02498807509222099,25.826418816307402,-22.304651200657183
-0.04705574177998305,16.683070945436988,-19.153226957549766
0.05639347236924624,-10.144753994073568,29.96388175293785
-0.03905514547340397,19.041818273514806,-13.179226431610061
0.06913310277878976,6.236522604869373,-0.6543454523880049
0.03384400423371367,48.326661160971724,-11.820293528250389
-0.06950508126322977,19.01392108697238,-17.820061800013537
0.035174163174398386,-18.69292715738514,35.57466376934712
-0.026528126402559735,-1.377586855419211,2.7539180074981315
0.00525849218457446,-13.406240329783737,-10.29312775377468
-0.15965550176584353,-24.74622240273878,-16.82572193647316
-0.026325937386923588,8.065032319872724,2.7302398278591
0.007163279516463528,15.129645884490726,-11.99192727646768
-0.03811800466743968,18.530810074779318,-17.460509117044232
-0.1638173713417086,-17.78265302565834,10.10541370207086
-0.05330595206723533,-6.331010744669233,29.109753317812533
0.028030820724655892,5.271638496679306,-20.359925149309387
-0.05230995210169453,13.971233667635355,28.038700321348173
0.01843310772829882,-8.738907004587048,-5.0963427566716
0.08376557130959657,-43.15282282917707,1.270147526268619
0.06513594385140888,7.131383092885715,-8.487713778166194
0.07237624183548819,4.888538230680712,-5.8670085454212195
0.1005325751153783,-10.886515365922715,-6.378362943327078
-0.07632306379115894,-51.24555683636459,48.3720344658047
0.05709409977229858,15.294993666437481,49.41214205106657
0.031194443311570688,-12.27551555363689,23.794745690142967
-0.006232937156797771,-29.9781476106677,-11.142861697598054
-0.1271921674583825,-15.056398240728202,-53.436471042734524
0.0383914046198543,-5.12492714906087,7.876216540507118
0.01298696559580575,-1.5101788663771072,-31.892881942473608
0.23596780082606347,-8.118102280407962,11.717216204065878
-0.03332641162022127,-26.002684692804102,6.778395320045707
-0.021716040559223052,-10.906991044756776,-11.893740007365466
0.09043740579303648,-24.754499319120946,18.607831437992044
0.07152014699823679,8.961571716167919,7.34555534488338
-0.13628056604437974,-15.682707549566913,1.0061800146220035
-0.07828549971459103,11.88476459948382,34.540458306515106
0.025812804503835402,-6.076645649806337,23.892007706581985
-0.039543700206882644,-9.473638104983406,-31.003520051474656
-0.022345418035604102,6.955131687904271,-5.106232758443764
0.18729821553230022,33.16451127259748,-17.447130053940853
0.12424337926441434,17.572288924497744,7.940987502690832
0.12784090423191738,1.5443785971028225,-10.997860476746602
0.13856342382877906,-10.729150198085492,0.3254743298037778
0.1040193992502827,19.11557363972868,-17.41799997946235
0.10654891990872739,20.454687364007953,-21.576785551059835
-0.16609680770917823,20.232478735748657,-7.777720193719175
0.056944492908628734,4.285624779758825,-4.004615971870934
-0.08605545436477473,-50.40807980942365,-32.707475046322266
-0.18373087236016497,-12.46942677596092,-12.3743384467349
0.0658607770106061,-13.058345138904873,-6.571414786377256
0.050375982950285184,1.7635540726153316,-43.0642972475545
0.17568619169700556,15.428096493350179,-1.9312731795786122
0.20888664310637714,17.29152569129148,-13.382686415139498
0.19129175187421477,31.2787061787333,-9.465930979930015
-0.20665844468147446,37.27843972968571,-1.7361755644791295
-0.033721914483200895,-18.307133417150794,-5.148013477090535
0.1273499634543411,8.969805066548044,19.060360192611437
-0.05597925191619433,15.466879834970529,-11.095486145679054
0.1636950547565389,27.518211060087516,17.617591054468708
-0.1418706674323492,15.10882618242196,8.17995087067285
-0.14420142979576697,-27.83347980764644,26.351882524949293
0.08274780847917967,11.703170900042966,27.926266634815594
0.11486982818618607,36.736079941364245,-0.4326201430811499
-0.058361531654098554,8.78705350137862,3.2189601212280095
-0.03549861233833969,23.930824124803138,-37.49724099722485
0.05923019097409343,1.4188277153537168,22.496699164429476
0.013363465025307875,-26.197260978701202,-10.980811302543206
-0.08900119612662068,9.67641285162465,-11.524960093930796
-0.1212072041107387,14.346036518930923,-17.336308774173197
-0.14148935918417666,15.392661961144166,-1.2200142806305174
-0.07867814911061258,32.924692469668074,-34.956934109757896
-0.1995769385148199,22.046456872492183,18.44536679705733
-0.03745193352880446,8.430152825079338,-12.72102363913729
0.0851819562487497,27.787888652621895,1.046091172847596
0.23537796353331875,11.90080238107965,-29.90904989037778
0.1851729935566731,7.825413146246836,9.857529849855368
-0.08122959206893661,-2.566344251312165,20.65750325381247
0.13546716752217008,25.286311006306935,-8.290884018141378
-0.05302227673339588,-1.985705775262747,9.117845139051145
0.0488164560568286,1.6394091176454937,-7.860192826969729
-0.06888330626508928,11.686407531866262,19.2650519067709
-0.08459250579631855,31.005678696008232,10.370588010538082
0.09017758187490339,0.9384266436738764,-19.21484802799827
-0.08711995656882451,13.371339437635593,37.56053379105151
0.0805973207860341,-4.763615602447152,15.334894776021496
-0.05508266004138859,8.036061739360651,-4.299335332052998
0.011104944862862757,-23.985406229036577,-10.732340791456519
-0.04176855093507467,20.798897608545705,1.498097588487393
0.05847165712856076,-6.47881584520337,-10.52347125835251
-0.03966767154633119,-36.79917773469532,27.668397645993466
0.13709166107760606,29.963339186834098,29.056860210350493
-0.08091515525680981,6.95793127385368,9.964413245104483
-0.14220356388680075,-0.3011091355953754,1.033572371167163
0.05631453078855522,-18.042443577167845,10.605800086200894
0.043091029783947174,-24.812047513420126,-27.527285659599563
-0.03194474018218523,5.2446557946032435,16.842710169342496
0.1140187377317362,-4.619194266396184,-14.765262197900546
-0.06509589000299917,1.1484142394210826,47.955148778382465
-0.04875755553527459,0.7036806613473123,10.041578350103615
-0.09205570402541818,9.659129851986139,24.954769933465826
-0.062080740338410004,7.853010319186921,20.230703461518374
-0.2001375806859027,21.98054558389485,3.439809319102543
-0.0718656927546472,-13.113360235035945,50.13241233092443
0.08931866219551546,-3.823755280869631,18.70963700054878
0.014976813870332027,6.157536777320298,14.028490011140528
-0.07305839841834333,-6.3225152475695,-39.161513504365445
-0.053103582786470566,5.375320732667351,15.46592524440583
0.13426335639005166,13.367595989729438,11.419071840687817
0.05511481756147785,2.898402336837464,-0.1401267613001371
0.12522431326435582,8.472377264759633,-25.181269812884025
-0.008520498154038549,8.470639704746754,24.173893142281262
-0.033148964268645144,16.949648066934415,15.189114678544797
0.11477215138309003,-19.486866504135968,-37.114863609987516
0.08318463510986135,36.8829512048936,24.222721696504696
0.11067691069281466,-7.694209473927586,-6.521241260501397
-0.005271359029117773,32.19548342424763,-8.87077264485365
-0.05255499252739962,7.577456501139364,15.338150175667023
-0.032092795457877674,29.654947338666528,-26.72299299189057
-0.04127301018882366,-2.172265969912415,3.5848827297353267
-0.05096868690606482,-12.331425610798876,6.85465670562394
-0.06507576681454073,30.663311040276128,20.736952555010294
-0.1257883705778635,8.499044670035763,7.698349432267006
0.2542628193652472,-12.298045260460428,-9.689570590800644
-0.1267807596882208,-12.572229276514744,-13.527257243079902
0.03248622991025759,-22.411809809522918,24.644167995480963
0.1044347060140273,14.764214565783455,32.69625166709354
0.05809172391437709,-21.7445783832175,-24.077272058197224
-0.011870167716218759,26.46629562881579,-4.74796334923304
-0.08766994530152257,37.64928124130315,-5.947548646737121
-0.08822796590841694,6.863820187673299,-13.09658931322387
0.1222782320795895,-5.658943928067472,36.95652114613688
0.07331088148182248,25.47027290178715,-13.504215937207299
0.011374685337946423,7.726443099444932,1.2067893411809716
0.02080300033751859,-15.499889763922104,0.5500917501320866
-0.07451283511771589,-9.612264298381463,28.337399290593748
-0.01955907105762611,-3.7071627365567283,-13.096981056062113
-0.04204684634785233,18.950316404705568,4.79837398493988
0.09722207772347775,11.001726574267279,-1.1866052027815164
-0.08074412170743826,-13.284958448341653,-27.14811263568142
-0.012935210293845823,-7.803795992636987,-24.43973559466187
-0.03626381319519501,0.9270295926291756,18.302625461272044
-0.1876319367242486,2.535677319238049,-27.41095205721329
-0.09764229780179078,5.9478744074207,28.819398865363247
0.0458428879803926,52.56581295870669,34.93422675462177
-0.1793843402127292,-26.388680101682187,13.189934291545239
0.09265240631658567,-16.44035361118378,28.816665744927224
0.16646554104390685,6.971225301830635,-7.250806352000026
0.11181283884524706,-27.6441770260887,-17.55290015542535
-0.14842623105279484,-22.03628336718168,4.386033792463575
0.1640916722264677,34.69477236593837,-5.230277559676164
0.13284236801826166,-10.335405087995746,20.376907752127128
-0.02756596081671079,2.7371906147701583,18.718632312688484
0.003680127383831706,-1.3102696757739007,15.29760058158018
-0.08822430454638908,-26.338221435135537,-3.4850638538140744
-0.05713458366352545,-57.3468011603089,-16.70653745592693
0.05946916351077158,9.311679517279373,26.84892739217708
-0.0005250245957353502,-34.3252209590822,-19.484417918997558
-0.11092252729367091,-30.711713435254744,15.07903216044788
0.026284603920868704,12.74984355139942,12.463416849877
-0.0002390293073346357,-11.710168653420535,13.303039512856609
0.07974333383200712,44.37613653624463,15.802672330025212
0.004871976114351409,11.146324925964672,30.57934572972905
0.04125200902358095,-3.639223894069305,22.570022474342686
0.18002545168592773,24.439375255828043,7.168830029264392
-0.057055039331005836,-35.23726978242331,-18.790371429061103
-0.014187716592468473,-29.645240205275098,21.506719760941664
0.07858548031806407,-5.63311564605276,4.187106623962881
-0.20971032954735602,8.081379726892862,2.112350789491915
-0.06664205135409039,34.74843639102096,-16.613273145559777
-0.004739142503827891,18.1115981031579,-6.490625371839363
0.02948241861208456,-41.30900636673368,23.684072812851554
-0.09912161659717561,-28.86433325604664,-21.803860938335333
-0.019064992301590103,8.030688297421086,3.7158250157146355
0.13157508249456243,19.36922212328301,6.033019007868403
-0.11244641326103458,25.163694942950414,-26.733987040534775
0.13863450657550785,22.018397591045225,-24.279854655275038
0.08254989349069097,-48.46980599102744,42.02959386782403
-0.11322250758269503,-3.0399405988073025,-39.70507974020662
0.00043317270524878706,-2.7827412687653568,-2.031305531294768
0.05104801455496569,23.63055817018488,-3.799945123264055
-0.05984581477680323,3.161783566945359,26.839460563690892
0.18360992690283606,-25.40834768746636,29.61520817117911
-0.01970335946486046,-9.260177680637385,14.272085665116458
-0.10290822944212684,-57.825414586936745,7.322265276752605
0.18315192525348545,11.841023001710454,3.672764536675018
0.04719713017217364,0.0655766481608994,-11.461754553966024
0.12861465689531024,-3.7772024831437174,-12.805112085075818
-0.06293615414348307,9.131306305683118,42.92336417383406
-0.09229523059994538,3.9146994434689786,-11.884001309941674
-0.02954127397893891,3.66721317701245,-9.572143130446504
0.07034540351851258,52.5056993334607,18.80328819465592
-0.027375058706768974,4.259384221326298,-25.477412417539867
-0.051260832602393905,-10.848009474869198,4.179991376620899
-0.11737008975939951,3.2939155734128973,-12.996544789099197
-0.019065415645658636,-21.259328385329862,-23.12735727858374
0.025486944935117207,11.138442690812916,-18.959660079158006
0.08924029545705815,-12.492732843650147,-23.31574304197741
-0.11656971709749019,16.512103564473964,-1.7549673859495083
0.008741494492027857,36.1105821815722,34.33449168175656
0.14389880265664262,37.44844537284241,-21.47088901385772
0.117667371160408,19.35646258008067,4.1661563688277505
-0.0948166942148457,-17.920534641786233,-8.456189083927903
0.06532471430906321,-29.856451624230598,10.521221400261316
-0.08724193968049168,2.6977908451443735,-21.037581712493033
0.0265876173713379,-34.197599799856334,-2.4658934191583795
0.09988174137727938,-2.414122083619123,17.071007398480592
-0.03995007662666519,-9.93582241055055,-34.31965083466714
-0.13934134533457915,-34.96367517527512,-17.598540230375743
-0.009831665105094962,-0.10413093619967212,-17.8336314885175
0.017210923621365625,-2.125284682572015,22.07086936515428
0.043793977464374724,-46.09782335164635,13.093250031630816
0.162378799642664,-3.4378691315182968,-21.279903277549828
-0.07551627684965757,11.259067640634644,26.80742395230361
-0.014585348015885319,-37.00438963556912,-8.132189836652138
-0.10103305583786043,9.207246525691643,-3.9142472396855665
0.05042539609743815,2.6382004269707138,23.282082607372665
-0.022951320924003787,26.47895943537501,-4.576039767363142
0.18112789108294344,15.80866186185488,-7.6208577462039075
0.10001021333852281,18.668015081221142,10.490455873422906
0.1658503978549009,21.3830731425459,-15.380211469712906
-0.10909108301647608,15.074262582355404,-2.7868967818235033
-0.11079036021484484,5.0634372789370365,-10.424997555486142
-0.08363779795275658,23.146321323448102,14.33097849635956
0.11962131535625725,-19.33793518227318,5.934690936781095
-0.09857600133091417,2.4150244550982465,69.37716238770699
-0.1600964360619892,-10.02873762326625,-23.652837175930404
0.06826654904878283,37.442194830966294,2.960000095886569
-0.03152738792009068,-21.604970062916742,-16.77335754537242
-0.05898318341111256,-6.122755161309184,12.67263536901597
0.08715986984885725,13.84153065880251,7.867323762537529
0.044881560253746046,11.50905386672034,-12.00162062427122
-0.1788990382721484,31.936167521493633,-19.268129444617024
-0.17596614865105434,-11.570327866690791,6.737278888881022
-0.02957187979266227,39.69924689991547,0.5682104315007844
-0.033035184497332594,-20.73159724761842,5.628881195179696
-0.08657065793395566,-9.593790034625197,-2.674983214886843
-0.012908514425633245,9.611854942128614,5.662067329269554
-0.03694312695197176,31.69234011505057,-7.638666731639847
0.04251145904078978,3.6653937986431746,-12.319280232956018
-0.07940985601313093,-8.056532568716566,0.1454662460128813
0.09936010029943915,-21.86228285557845,27.456037593260785
-0.01188441907420121,32.3507166811475,19.60355073107396
-0.03574416401260395,14.27558920362243,-9.663288786174832
0.019634741309653817,-7.493332065291113,-1.457485272217407
0.12856709064830696,4.4033411191338265,-29.52802394989064
-0.042514659935391594,0.23523604501951356,-7.0217905588687035
0.032253862722435626,-10.36642299711336,0.3270494135170908
-0.09694639075707985,-24.347325494606178,15.05382092401933
-0.08008165616171087,-10.013852435522317,0.10925719239194413
-0.085226905202414,13.592811800927612,13.798483245721462
0.04980840720007915,-18.01476056711851,34.579416290045884
0.03671170726820173,8.180320211275863,40.31848987929802
-0.14255273573636337,28.66054812284398,-19.77322499284965
0.1807670595235547,-26.64059994808867,11.285143285940205
-0.12357227603885515,-6.948038629312271,-21.781125499837387
-0.0476575415151364,-30.311505269037994,20.488526582521814
-0.11118028629167054,-3.1445834642871553,26.680544025806935
0.0840427050307736,-23.800751456876682,-3.051848301391237
0.04608396535008841,-42.06802225383004,20.70252269977617
-0.012209352355814223,-13.198562345878385,-6.109201712411013
-0.18864402385645448,-0.4432838083874516,-6.469418250317402
0.20106441761803065,25.92740006133394,15.474621195085733
0.04143351510894241,22.923862489026014,-14.882827644273235
-0.12177711642082448,12.18921788975473,1.0293235007215542
0.034434474489998555,-4.365899124357772,-0.6154107389304282
-0.05268282453253853,-52.159080550072446,25.65580808046615
0.10695573597147111,-9.620411091073064,-8.891405651439543
0.042478826709610035,-12.508000868162155,-11.55574058018749
-0.09225137190842186,-12.594988105096043,-25.77488330678988
-0.05811582321329578,-43.893464482121026,-3.723780688534492
-0.08109349720584214,-17.21959852133604,20.54164598328928
0.12382472270185503,-16.655273098801608,-22.822806153720563
-0.1303515381381181,-23.590025232193778,-7.030218035989608
0.11117972475655519,-25.551583647668345,4.45575471231824
0.17760358762004042,0.15030670748538785,-36.512824951033316
-0.039516624222729224,-24.103992450018392,12.218459334102313
0.032586925200811814,-5.426646867343848,17.936310184771063
0.07065870189917116,-7.7226776567742075,45.06064077652772
-0.01582995935473537,-2.4567996942620733,8.708757086086738
-0.05612878272435458,0.21935421264620625,-27.484912716825292
-0.19967148836615203,0.35406080323593525,3.8368882568994933
-0.030023933837241574,4.810998493905,38.263346012828535
0.1815525263705119,15.50040804995395,13.589652533979512
0.07186153195977886,-43.38754691440228,11.754437669913365
0.14038982725752625,2.717123299184391,21.691817372522447
-0.006099347973862382,-13.677531822642814,25.11994473674376
-0.04172218306398205,18.889524956531886,29.912087833822557
0.05734335389407286,10.267977033603682,-30.08752230216026
0.03493734679517405,13.239491056828287,27.58737510982261
0.14342449226507595,-11.510029105734587,-32.98198294249245
-0.0743076630469811,-9.555331891358591,4.707886275278016
-0.1328953293503052,-28.18956579876133,-14.957342277976103
0.07626063462958431,-7.6375291500747124,-32.533644605184506
0.005937020957064096,4.8378609871819975,-0.7934962417755878
0.11699495250131142,21.347201984212965,32.00752352606662
-0.013382893525041262,-1.7134892554369094,-18.1708396937022
-0.053118833805355606,7.5357922158258965,2.6132837998116933
-0.12245786964624619,38.17214499154987,-45.67425374824205
0.11073152800293128,7.663603555634211,-3.5501949849182237
-0.07724464809267478,-6.653727990614623,-4.319953463529806
-0.11758532506243238,0.9873958281432924,35.57777149105104
-0.023075736926515787,-7.284872267295449,22.276499268262985
-0.047125214314708355,25.25507537201008,-16.40777899376774
-0.0682308841777886,-0.5694670949306575,-1.1426626050716577
0.11427751650119816,9.098773907059453,28.736517967116466
-0.15138868265344854,13.106812243363123,13.939933445948956
-0.1874148238347111,-20.080212495394008,29.335692926883677
-0.04409156354544352,-34.65719860365135,52.53253875992477
-0.15578785788182767,9.42800269191386,-38.021048528634516
-0.0032342856844065995,5.353199375775464,29.109377192895245
0.1842385310584655,6.213554073858383,-21.50197198144015
-0.04853211732388745,-22.00712171818416,23.229821613890195
-0.042482285689211696,3.281022425692204,-3.9535003610062205
0.044121929082806884,33.57393334297562,28.3607869657789
0.07164616713709687,-28.550854989891445,17.382486955223907
0.05392604954272068,-31.10070541181823,-8.801336530295309
-0.08287172123063652,20.41094008347159,-29.766222559553214
0.19962274958409243,-20.95014616392264,19.124328288753812
0.06542178179503315,-17.552857159315153,26.644767075009476
-0.0036560268386006977,32.51404263470049,-0.5817405092905471
-0.21607586435856554,22.04820152429718,-0.596318024169638
0.004689315858075146,-18.622497337263034,-3.539167948858987
-0.006487876959040551,-9.471752452808582,7.201655859675037
-0.053780476418426926,4.8146364946562485,19.638654638199565
-0.005002124476103855,4.539382784863513,-6.525266486024236
-0.12508271725415082,-20.69890637804665,-25.821155246865256
-0.2179916640198244,-10.489132010745227,-12.186621281597906
0.19197139010396158,7.216043795561699,20.74320151963103
-0.13944753743998983,51.826672391334995,-32.93184211826961
0.10790436052675585,16.74015026529601,7.998375152186366
0.13863737579668067,10.215605868130293,15.711088749358144
-0.0057081435364455,2.3302732368688543,-31.41020995059168
-0.08766625483951541,-8.595178068595251,4.523956973039982
-0.031218621014481824,2.5082629557846623,20.18759894909133
0.06921475243668353,8.396724499818255,11.933744407520182
0.02294041126694353,-4.794030609292203,10.067078211334206
0.07363689920997746,16.586959382927724,-24.571748462385145
-0.0067777375128903,-4.4102812539247465,4.306292359714005
-0.023912669488855464,15.147576126415135,4.139335523123875
-0.04191578862723108,7.101008542708547,-4.097459644712076
-0.193610800229975,12.01703420109516,-45.06903757337673
0.03487130760645083,-26.958780528264622,-15.499758482525351
-0.1634816481903265,-19.575164701414362,19.672235357121718
0.17870550673840865,-16.46723425999864,13.197210153217894
0.049614026400057756,21.754745893016523,13.469862656102162
-0.02372315323950221,-6.402162453093306,-16.137749782804953
-0.04489847417700522,-30.063880983474803,24.507758871152845
0.08613576392046102,-24.806235581082547,-20.8189366713453
0.0960036498512798,-8.801146889634724,-3.4644425499041596
0.12018059518058553,-10.29325678240567,2.4097100335443584
0.06757175641656468,6.240122774617376,-19.44864339383779
-0.045290198875385344,13.804581138764071,-31.720771074905834
-0.0010721119737508082,23.323311264807742,-0.7722049769519765
0.02232938556340834,-13.002654626384079,-10.618099028423675
-0.0524203712429584,-0.1659069676127926,8.39537147079447
0.06476225811400148,-49.15884433124138,-0.8421282783281898
0.14234073926311072,-22.220661475970264,-3.4379304648890145
-0.04223081526935743,3.1750611962268174,-23.970434537823454
-0.08697072930476048,-20.953644484566297,46.73412626513189
-0.1024755642772278,-0.9828166841788428,-19.27512042583998
0.026817586633513576,11.156705748294433,-8.039298628098601
-0.15748378393114024,-0.7639678525331022,5.995659613499554
0.11859271787309165,6.183656735754983,9.53527339736545
-0.11914899660524153,-30.747992094870874,-34.73891990149294
-0.02810782090538005,11.067348127607804,-40.10266955372341
0.1658781125166937,20.06026821809446,-19.000425527572073
0.11938072681668384,-19.61857489078205,41.79911925824305
-0.02769194850882091,1.7088328968175341,27.048296459904932
0.18981970308804738,-25.261474800452206,26.910745112569092
-0.04735662282726069,8.837795174503675,14.172973866720962
0.18676946398768188,-7.467099455121541,-6.887523700181262
0.12171051044659112,-31.72613848470376,-14.743337214063487
-0.1663653024908059,19.25144009583401,10.53566132190683
0.24980976558573964,6.510235907157307,-4.615921387325689
0.06271339290171811,-19.834918796734023,2.234476083930576
0.04272207504128667,-15.75207925397089,-37.37922230593613
-0.09720189009899778,26.057651470634198,12.572632080928344
-0.15629095102236298,5.976848665836204,-15.153046729561865
-0.023760997883345056,57.93420778474968,5.882693295862298
0.08444578226389748,-27.812852523096847,-22.77526098640385
-0.08646958408111591,2.5107771594919104,-15.629256624065746
0.18857959167431917,-7.9315255231113575,-10.414607581303608
0.002531003782554046,6.162421668312255,-17.046851970324333
-0.0898112848567196,4.4699967005762,-4.80505348666983
-0.01491704959998874,3.5974608686993506,-23.2938976017111
-0.1125723675178832,-18.91451202180557,33.01586750857357
-0.004857465067417074,-24.153209060519053,21.067969669984517
-0.11259537391374037,-34.42410243121027,-42.888606499573434
-0.15825437252606409,10.695506426449073,-2.5759043146818335
-0.15407978995161364,19.095530557319996,20.064884710846343
-0.17284327005965217,-7.557790915100709,6.028301306101298
0.1286183393347663,8.205713773703678,-20.00768520294853
0.07381591905045774,24.207387585510336,-6.977847237795948
0.017399596475447355,-2.2246044541025602,5.036780293766016
-0.05355635832918268,-32.12819179526652,11.704621398406909
0.012733588722027879,-24.173947853754164,-8.026825499649966
0.0028360110825297984,-33.50032781415293,0.04489601352664528
-0.033190188828881285,-6.940431123546118,-2.576786846049827
-0.018272835807671473,13.443730003988444,-12.97918958588371
0.019849806746408363,-6.059762338818095,-29.630173173245726
0.2016499144642251,-19.42462160508555,33.52093548855032
0.10780360256688548,-2.3479067187066094,-26.0384221279767
-0.12417340130410577,0.8731225381972834,-17.131799549144066
0.006180888012947552,-12.612160252013112,33.00303324661885
-0.10866349883967166,-49.78176040764342,-20.639235284144448
0.08143190106687268,30.90465936537467,-15.417113166648829
-0.013218884860794006,-11.369087881955789,20.363391644644146
0.24511640874179316,7.439940521921333,17.35477214372078
-0.06959110302368496,-0.061372940256230746,-23.386560733115967
-0.10233403406421825,-15.166007946577999,15.62015683484132
-0.040537020727593034,12.048374546217195,6.183293152500448
0.04399953360428766,0.1440977990512084,1.8962765175481844
0.056626109786682505,-2.2187765876341774,3.4395657399380046
0.04145443825980147,-37.1894751549382,-0.15473671012333282
-0.29844893616778284,-21.170888577693997,14.22363516119785
-0.057877701390928765,25.966778079318644,-0.064984814305081
0.04061148864951909,20.20579984466318,-21.053645204865123
-0.12895572147961343,-28.871543933557852,11.544150654399985
0.04501444025873838,-15.673566315251264,12.541833206824062
-0.0012205849819451,17.50623722995059,1.14795124153368
-0.004502889113881943,18.584644930924355,-4.806668468078206
0.04575599311595646,-20.077953552644303,14.634495700390652
-0.044243481324701864,9.940388546778603,-19.713009712189688
-0.041372784849225214,16.2553878979243,-18.996782275775324
-0.02467435569898368,8.876203442735047,-26.564581350266486
-0.05782881221211367,14.194343112523391,10.953232284546633
0.12424757189908937,-5.271277042999419,-0.017732313652794547
-0.11874351052163662,-1.794137489885833,3.31356905712277
0.060652050603912655,8.751752779103777,8.162555307759984
0.14050488806485054,10.574672876602701,-33.43892345800658
0.18882691443149785,-26.846536660491584,-34.24644940586696
0.08096247373296035,-17.195428080886327,-2.099818609818699
-0.05592554933753322,-75.39862511924565,-33.24167402314776
-0.13500529477445664,-43.38114419376098,19.20005438970073
0.05995040833761727,-15.432350606315126,-0.2503416507667929
0.051631162232279884,12.466676297588805,2.524506379611963
-0.0010799876188174868,9.275846541621846,19.991511450354672
0.12101894525170301,-21.5679444962382,-14.218169669237133
-0.024438612889967296,19.72761920405914,16.979288308139008
-0.233597407259232,3.32534418940972,-26.87070973278753
0.0769464913670625,22.25853468188022,-25.20906815619191
-0.13097796998901096,-4.779015815563025,21.494063407470826
-0.03819191634068306,-8.517864672015694,-2.4255743549099313
-0.028003577156162036,-10.048039482853737,29.42290421323424
-0.06434952754053387,6.322821588064176,27.490512080363732
-0.0358195507188332,-16.630826401518167,15.987295624851594
-0.003145192957041968,16.053711770941298,-4.414091751102603
-0.2076680055901411,-35.28376719453126,16.629027291239083
0.19573436567226088,-11.585937905934347,-9.907276694877948
0.2010177531350947,-6.881778318086683,-42.48209921866713
-0.041984361028734096,32.56154734578779,7.4141778364073385
0.08035320082675192,22.79511512978873,-13.922222104096473
0.05241525490536683,3.084595816396591,-9.273089305496745
-0.14832318639618533,-14.957569835336542,-6.936308601817589
0.006107566955987777,-15.553975206292257,31.4815448929141
0.016065100960641298,7.817388914824894,-5.904979029878428
-0.04739346172845162,33.64626408830562,4.84320370262433
-0.08077815771952583,-26.25614565742124,38.849587892207424
-0.05084201531720842,10.894229858718713,-7.02884829632977
-0.0361299749531427,45.126993051330196,15.824483864075072
0.029992488951204335,4.018186094384481,-45.22477127641177
-0.0869700697902564,13.984816928166872,28.30669868739458
-0.11469611693193121,-28.671856258533136,7.331840821745793
-0.03615826970784718,-8.28580661452345,0.2340457608115344
0.007217956062314186,10.562162595859185,3.6621225288821915
-0.04649777110769365,28.60936194907235,2.4409994174087255
0.062469886712087676,-14.401525037102289,-3.490309363563853
0.10366744401738111,20.076760087741526,-25.43424690182976
0.06976301690046063,-17.769720317488137,0.8688827315977001
0.05285502748464021,-30.75615682913647,-17.7094921560423
-0.02250965597489416,-29.14365063181783,22.637424421855066
0.11964101243912761,-7.208567840221121,14.642582724954714
0.11057822890625457,-18.62705318669654,11.57160926165436
0.017634309088069258,-13.41487702197366,1.211794719583513
0.03476197036119399,-59.06818441337492,-3.8282078124589054
-0.030650248574361817,24.377869846443232,-16.692994121959018
-0.03925446767780925,27.0714753281261,-13.234375302577234
-0.05890041809367609,27.255692215039936,12.225462583234115
0.062192333524986966,-21.812876773552524,-37.88164562914965
0.08802862859610654,6.47440990126877,-1.6967310840333223
-0.013576180310059026,-11.253407662355821,-79.99607976057099
-0.1199983766217227,-30.98905068701681,-14.633858771942204
0.028983703542651115,-34.68129651289131,-31.35173571943367
0.15622244184583609,23.080423547046884,18.144507308048322
-0.06912183136544316,-14.320136078807177,-4.440935916317351
-0.11968373909946028,2.212539297865897,5.866797877085945
0.008213845321725498,-6.026279628490711,5.2669371355648495
0.23448398183209568,-8.121916366850714,15.214035115009722
0.010856434452453583,-13.980336515326341,1.9171825785598609
0.07384726102184343,5.340292630950739,29.319425484705054
0.16232590385995738,-10.249349625036054,-9.002539249445313
0.13408740779490583,-23.563067723743117,-11.49883318214572
0.03801388645055161,-1.2643113698700157,3.8674302966071834
0.012755935811603211,30.549285030945295,-16.537971226183824
0.0695486920041088,19.69113839321165,-22.01000634445998
0.2541858075821538,-3.630326455156862,-15.331450340930157
-0.02404356371204666,5.746951045140935,-13.840666999844714
0.07872271737927462,-0.005728039817883867,-12.21409195401547
0.23171362919613225,-18.967655915656255,-19.0662950218896
-0.13086796454136343,11.70028760746164,28.275214548454475
0.00880711687683234,29.768215082204254,-21.159081071495148
-0.010700948013477984,2.9051793039879503,15.789677267253657
0.057687666487804136,18.05988506498322,7.210369184946158
0.06970683216787256,-4.318184730129803,-20.330303254550955
0.052990212404456,26.33621569382158,-13.944679962484374
-0.056467023636475135,-0.9817451134382614,-12.037409745636955
0.0068012524865069205,-24.937028513492624,10.087199758360672
-0.03951356520980721,-57.18558592163042,-24.692179919679784
0.008216985546737316,37.13063183039198,-12.459258264603658
0.035539016085105006,-24.840500015992202,-17.986938105565
0.03417596709299191,3.8172295559372826,-2.197792558674527
-0.0009755422648519223,7.369113345507774,6.2832813909140315
-0.004704008327022842,5.156944866607552,-9.246141745512947
0.042693889330621404,-25.03627288069774,9.458054051004346
-0.05343970822278831,31.30444088228549,4.961902989462897
-0.14522981557696452,-24.382575487760313,14.950688969180808
-0.015136038680448872,18.187411804302805,-15.184922055364114
-0.08202838029539293,11.119444911707673,33.087601933757945
0.09102271180119106,-25.878217335610238,-29.83610110523376
-0.10224094418377867,2.120351455945676,27.990325452366335
-0.17802766283435745,1.36795065843581,9.123328407558324
0.07511336934701927,-42.43332845255346,18.833714618671998
-0.016046770360975782,-12.42443720997938,7.271391421620286
0.009179443936393595,13.446879201634239,-28.360743574783676
-0.01619971030380039,-7.752857648863313,-27.956232763812228
0.18088152077674147,9.502767401181774,-41.355986992026814
0.18027454941291096,30.516890183002975,8.08333431857093
0.008265469523820203,-14.80790950995097,-6.913676067001484
0.04425752571570378,-1.2678857070210006,12.692456008989748
-0.02859127186943408,11.451830558426892,-19.21529666184695
0.013400854579714428,-19.990251085275492,16.29666281666608
0.1262661333463336,-16.597545306292282,-35.39393036635544
0.0780531862586036,-26.97526990738119,21.202045246820973
0.06775099782656017,1.1814547524154582,39.2614748557752
-0.00738694688154079,-2.181174010037938,-11.420814237586578
-0.0018724007956949609,10.493023248024976,12.074799624691524
-0.046318371126772534,-16.9902988322392,-31.125644624601442
0.0028489375695631832,21.924444020944666,-0.3758985120265813
0.06905510287149144,-7.861151635750674,18.887323176910463
0.045529060980571634,-17.593979073732307,28.275961292178824
0.0816556769150635,25.699966889443544,-14.396847522237309
0.004894900724454575,0.2106337005077552,24.885041963099592
-0.028617463595103972,-0.8227325531449637,24.557162823499674
-0.1293899590446118,-13.497069525310367,-37.6409759193113
0.01683642366313613,7.263446238756885,12.643185145690254
0.04521960536608421,-19.735178144109508,-1.715270706562619
-0.06302596483576518,-25.199588247975477,7.277014285251679
-0.05419153698998627,6.843294212820984,-15.431036169322038
0.10808097372850806,-56.02777742837776,3.827947191803202
-0.0074733775435464125,-16.564883477867866,-18.020518203886994
0.03345401145937076,-30.87017139741194,-47.349060384486705
0.084166853467229,-10.469498016775647,21.37119409184544
0.14151307251643164,-27.595201143268273,-20.146628275230945
0.045746401810671446,9.156103022427688,-19.40633551579565
-0.11315024780941696,18.59601924787082,14.488460107061726
-0.21525194653041974,-2.319771677270204,-27.701707610312596
0.10137545954639245,-14.061803430414608,-10.667970832314229
-0.020574529995388148,-32.444705130399896,19.94261197015144
0.01349334604128396,-4.782920088095934,0.6655693501916773
-0.12459769350315475,-1.6825317314855925,6.848441418747545
0.04530514078871001,-4.1540477537212315,-14.444083281498358
0.08531050676751928,-7.190001836598917,18.273532054645997
-0.051790185793823884,10.880495026338448,-10.143331411264164
-0.19090102974598563,12.782536657261375,18.557668206129918
-0.12281738180995164,27.02887888685373,29.086039385068023
-0.009355643360593876,-7.862909040762956,-26.818529250599198
0.09272247259400539,-4.610263197925526,6.956195661230483
-0.04861791172843888,24.015283286365133,27.668369317486608
-0.004811137230924312,-18.299417733351365,2.141124439702921
-0.14100507926348943,4.310756288831423,3.8641310655686874
-0.022363542476603687,-7.926738988981401,-14.78174860018944
-0.040124767001807206,37.98651512320825,2.6527209737140076
0.10963337294194947,29.38947086132596,4.251879082225111
-0.10375984444964466,-7.567354088506045,-5.757752344150085
-0.08977429248211884,11.973279930761468,-51.200783172848496
0.07060722571263604,23.38098621817085,36.0852500812102
0.0014184842293885858,-6.9642495475919075,1.9936956020417211
-0.04710498799531432,23.13633973195377,25.65898360229706
0.028681914234458768,-6.900008689321013,6.594215914016792
-0.16664912103285687,-11.32955841523803,2.0537291157513327
0.1484330821599399,3.94455287989922,0.4532701775924287
0.08039643479272035,29.97906741137037,-11.651298643071604
0.0477353803994361,13.915793836479239,-25.764944664143364
-0.010698866419755967,31.037582564471776,-2.581303683788701
-0.028010149358727587,-38.02822522908738,-0.8503450336312142
-0.14136674241652544,-7.095604741466621,-2.6202056322126484
0.025297327812161836,5.093670000876317,29.853136822415166
0.03101056140592729,-6.066629882629293,-26.884404767495997
0.07142921468661101,-4.8677998538018565,-2.037820325832631
0.10770109456076543,14.894039035439006,47.876380562175555
0.039795423742391,-23.074203618510786,27.248391090008475
0.035498180821581744,-24.39857136299964,12.464883940276223
0.07425787498286882,3.5190174708056836,-24.56881251156537
-0.039296051539659906,21.33617898659994,18.6910992494191
-0.04667673600610614,-3.7861779016483093,5.9006976478620246
0.11662015837991586,-33.1376210656763,-13.058663760500638
-0.07617686245062169,-12.863426853574442,8.970535094436489
0.04638325189249163,-27.30665698165078,-13.208135930208872
0.0061898656636240855,36.89638988934864,0.3956235213016619
0.043877827749999335,3.7199768173086367,7.348829760915056
-0.08675166141694504,-2.4691957050344784,-3.5628259681762326
-0.1660510582695127,-29.010691551626294,-3.5948257841300784
0.032563842785365164,-22.29196386546368,-25.891563487470457
0.18412472122435308,32.75834322792805,20.574175132607362
0.06651834177608344,14.321753629347764,-24.343878199523388
-0.0064983335559893815,1.9877129145762917,18.007518754732466
0.1317760444085813,-35.99165323843782,-21.55917851807621
-0.07556603195569206,5.050589210281275,32.85993810666965
0.013639943680378713,24.00993897990364,-3.435328113427549
0.17320898950623975,-22.38170516868161,-12.579789277590558
-0.17474115672629664,6.786313326465072,7.731245962923007
0.08304777442231881,65.6219433930597,9.306731377733646
-0.03285408158630254,3.548723806483804,3.4684345055136134
0.12117735301032923,-31.27403507908296,-9.576516227249412
0.005807449981778176,1.579290327540333,4.892579728864175
0.04190193202743778,-8.393665546666586,2.6083535919021035
-0.10990527105620691,6.823156891969511,9.71008591728943
-0.029969098033060367,-5.504505760880289,4.837559841480539
0.08245313829703739,8.48705044149843,17.7088413406223
0.018223191355655446,-36.338242904325185,1.55521512674743
0.025482900539289022,-0.9622962679540064,11.269939019887778
-0.06496412675684964,26.37256788954437,-22.872074014368952
-0.010662671766578098,-0.34515131009101363,31.12989556403268
0.039866144481566175,-22.269538906420692,14.162859023004163
0.0016064688084146213,-18.404079613508117,12.635794054044025
0.15093106105365273,-2.4246490545226966,4.740021128711941
0.006098830820889252,-22.6429426528517,-13.004483443068127
0.038681172926262,5.826368266994083,2.865231083421451
-0.16039501181940827,-20.858215384360452,-28.69219869122372
0.0640424380055457,9.723167851286197,-20.179794057367637
0.04941832545217407,5.890367834401619,-23.153501933951834
0.29083167666264237,-6.334582425528076,23.091030327736107
-0.015686692166175086,-9.169841565072907,16.557732139955068
-0.1266930192300947,-4.373953218857127,-14.924288911274088
-0.047087329144318735,-10.269562761711066,2.940003552672702
0.0018141883749694977,25.08264527244029,-12.466780785001557
0.006228526363839231,6.227911864429023,-11.308402067386734
0.13254173796054897,-13.743505754805817,18.464592600279712
0.1525310600250714,-10.140202215203729,28.99132681760169
-0.05650171366228586,13.148260241903504,44.606591697048785
0.058315562749640726,17.150995491753108,4.025324971573792
-0.07847123063667713,-43.83112936672707,26.048610858212086
-0.0167653566387046,4.433979493777561,11.39155040420302
0.1093704398320045,-20.41901240131562,-19.400887635592
0.06893996195832693,11.286805730861683,24.536508214413644
0.1836624404671855,-0.40594581475154184,-42.935312687494275
0.030511921171575487,-4.464856902995458,-10.234998016053424
-0.1765511175626811,-17.52222159442831,-9.451035697273277
0.06948842749248647,9.67786612208849,50.45026225710978
0.020177755599394873,49.68610708425071,5.194798990686217
-0.029562648979899582,-0.249774471668476,-4.1053892127940355
0.14971760648566,3.921083527099504,29.632891806891006
-0.1114824528775867,-9.222605218047887,-16.52540254805375
-0.004917758221885508,-15.883083802157374,-5.776253857456312
0.08057425044738178,-14.00443262064732,-19.45558636333313
0.05494309092359683,-5.408743685659859,10.37212857586061
-0.10420909491619626,-15.938098756665632,-9.021572800818653
0.07534322759010191,-1.3681456548207385,-11.5411331060013
-0.0750194581837236,6.5429727231317925,-1.5936190888495085
0.11362140846422181,-10.58113019894442,-20.763099950146238
-0.1814458532509502,-5.646771554471225,-17.559382212579912
0.09653721302796664,23.453182328553034,-18.866165274513694
-0.03785101109853783,-27.18901808875532,-7.090922320278618
0.008338368756898085,-15.690235367661876,3.65975618093551
0.07517458227540183,1.5398251898719826,-6.269749562669476
0.1399946366835499,-4.881263865137812,45.3454184564756
-0.18881875665618753,14.144121252976687,27.520433560648023
0.029249031545760723,24.737065813017335,-20.122360425816996
-0.2113742635253465,-11.745233925286948,-13.194988222742861
0.054465048598189895,12.739956553000855,-21.03103160429967
0.056401190651315804,-6.7900102766993085,-19.004656499291034
-0.03230147215879949,-1.7148182756669512,-17.632334607124847
-0.4037708875510787,-6.256754634416451,-40.52493278991939
-0.12224610133011299,-21.11962527344755,40.71940494541478
0.04198475032997116,-0.31827707738199534,-19.81529732684372
0.04309862424315704,-50.35978462768399,-13.323597051242038
-0.06271048432320099,8.277188536526042,10.828999959007792
-0.03565698320301963,2.622868603020734,9.935098207472212
-0.2818516135111708,-19.604884621524377,-6.213190392239487
-0.09030569029722618,-24.963334683008604,-3.1889276947209373
0.053912497059251635,14.208954697567409,-54.37926592034999
-0.021588690258714766,-21.951333367347722,7.288846968988937
0.040533935026515096,34.96148736060207,-5.9296656960130045
0.06842372110614928,-36.50282148740913,3.1395048420984715
-0.10708990424424894,18.956634001741175,-9.671105243799602
0.0202884058235589,30.33761444851024,28.589480905453204
-0.016724028080322428,22.3806765173463,17.757832029034606
0.009118064798271248,-13.617020337522947,-7.53364499936854
0.06059359880409185,-8.21032481465982,6.901761380773756
0.05242063366075558,9.861741200466764,-10.89037577201932
0.13800380120668748,3.034474586781823,10.721790439570192
0.0311713359870856,-10.511273386745529,1.651233692602477
-0.18688647214564716,-14.822150712818507,6.751588575251785
0.1230951597007925,15.16179369086487,-38.73409723148682
-0.15383633363761165,28.73000911424223,0.5965490692211268
-0.026372904028430184,-8.627750826437637,-16.441744159601942
-0.08482514977308575,-9.502443806761997,-11.27394646366656
-0.001341662868506381,3.969570111905421,9.398352562139827
0.0730499036681594,-10.226403221068797,17.330173743316827
0.05206602439087256,-17.447570000862218,32.936802231385315
-0.008616523099570023,15.977398214742697,-16.646576439246278
0.007505302722785455,0.6918978923758589,30.127963946726343
0.07841088008897629,0.91820471050381,-9.689340825108513
0.04302007202570235,6.363676069983998,30.06475391166898
0.1208381911391045,-12.765956137671239,7.1168355567942685
-0.006905708893573594,4.829494432034248,11.989859957144805
0.1127402074899791,-28.05891389488113,10.108545893455725
0.02674399848096583,14.471465334943602,6.369275645601041
-0.010727053456782215,8.008938553572667,-18.204428914746483
0.007663173138331304,35.246109474317734,-4.8674005664208755
0.13578993304683448,5.342125096587686,1.5058434168765433
0.008243080134239536,4.4012187158854585,12.581120822227357
-0.003480676571843202,1.8305979174014269,-5.496312934409931
0.08729470002906364,6.8358244054489115,6.220886880596595
-0.05848177067349123,-11.43326400401297,13.167754217614974
-0.1411151924974093,3.363716614817559,-29.38346609589938
-0.04195302797696801,10.347003553516112,8.267627680826932
0.3150767140766059,-8.444147855940797,8.7905421685767
-0.07238125016579115,3.1116744528684324,-46.43106310265261
-0.01406827265936867,19.400352170697996,33.313691371711215
-0.016975197071688587,0.916152729787896,22.44710355591183
-0.05137840240272562,-28.106388133452413,3.8696701964183915
-0.11484009947654072,-14.662702769480813,-2.2186908904783404
0.01725777510311191,12.431406068770768,-26.694450880129207
-0.09902273367114406,4.083997911416529,1.1451243626887484
0.024613902070635386,13.785298870509461,18.746914400450596
0.09953819352502301,-24.49122867921698,-8.092293530552258
0.004281105600432103,-12.710411641324681,-11.868586527157438
0.07903177190030132,0.0385487923795078,5.10488462724255
-0.12946926071419682,1.894511124260517,20.130964376560808
-0.06301674141237221,29.397686387168847,-22.448027317839202
-0.160635723663632,-6.767939881707008,-23.840395092796733
0.14072415474224106,-10.271986062083533,26.14018647620727
-0.02949654449628474,36.308995140084065,13.426227656758154
-0.017794111172491887,9.46250665181741,2.07418827824163
0.03687940330242987,-9.927727628784256,-19.15571169023423
-0.04665521307106782,2.5801435507006127,-30.85557222906532
0.01601095276167224,27.864214811938048,-14.673064499784576
-0.16615618877802818,-1.7067225075356331,18.474826149133563
0.19254144466029718,-16.97968492758474,-13.383256533409362
-0.08011850002180598,32.21909797008594,-8.542608186953881
0.02825968855099137,32.160125795775414,-18.962517784137507
0.14418624146871892,-10.166251244675696,2.221330675294149
-0.13796280590462365,-37.116351306879615,-55.25897243103841
-0.01667208711419298,14.746266495968685,-25.775652830840844
-0.16119290443012696,-31.91219465080737,-19.997231785825505
-0.07043177785700663,8.249992270604382,31.158564366451063
-0.13618343579930656,41.40164927515103,3.2142989187792512
-0.08078151683035172,-8.71303253272461,0.014710641752521769
