0.2759518230163879,-2.1679451771709437,3.036224739793788
-0.9865828626268723,-0.21584169829737476,1.100735256371912
-0.8315836394849057,-0.4854835432206351,2.8075674273715245
-1.4413357870576042,0.7073320240442171,8.842573778163516
-1.5823168810198511,-0.6034986426142662,2.1987579847688266
1.0297070459939435,-0.817583248807443,5.110413268787165
-0.6732197982610402,-1.7220950628857719,7.407870559925477
0.017154741916902024,-0.2021449376475841,8.830928766304542
-0.7137364548180581,-1.121631836148067,9.517760898950641
1.5604387369590433,1.6523744034651486,9.037027817469506
0.9084455317134966,-1.7045940155363228,8.924922638912708
-0.24406799785134742,1.0232689993197455,1.5661830239513486
2.056159954553988,0.5505966323753607,8.914848283871587
0.12596857728609223,0.5349693728101028,4.935727875095094
0.47215971850856364,-1.0237610976027196,5.270011359739266
2.0792010723979284,-1.2731879376058635,8.53470676770382
-0.1752478268431132,1.7161627095389584,9.765585999744452
-1.5490950084371922,1.626434668505062,0.2364873970111525
-0.018717093396822787,1.8899429693598107,2.9686818654359137
-0.5825392224256132,0.5025471640955117,3.036734777353706
0.3627823964510266,-1.4767856429672093,3.7572892538322122
0.6120740160889167,0.42868989421062775,7.201137131844719
2.0338843755262843,0.3100122337268644,9.171173826050305
-1.1292262628182472,-0.911437617781722,9.955527050295444
0.9615619427839155,-1.9138631921065812,7.720040923441584
1.5958373816128755,-1.2369546544603789,8.05530161819908
-0.6875439028755288,1.6324825050375094,5.38682134582242
-1.7778798077602824,0.2717856389685793,8.68362699660423
-0.2369840341140184,-2.010278991704746,8.60305817803649
-0.5656078996745215,-0.6293740058712368,1.075319784560127
0.33225405900918126,-1.041024600338654,9.905282875193468
-0.34590167107749364,2.3670739514958945,9.583092415760628
-0.7349454379131739,-1.1686235919854127,9.890676206865777
1.1047272836809428,-0.35768049730591656,3.9138231499725515
0.032511706176416584,1.7162321512023522,9.065788105473862
2.1540657397889076,-0.3356235302829431,0.5964987285429857
-0.1471196390462633,-2.023463467790612,0.5104462714946356
-2.121229369165213,0.33959872574737693,0.18246154957326732
2.0427483536361075,0.7464321534951146,9.412190687378693
-2.199158700964512,-0.36470425673711576,0.6847834675623288
1.617165781463164,-0.25658556240282787,5.9532959854175775
-0.6007670206244269,0.5952767336292554,1.2427992984636727
-1.4273335209903102,-0.09065329981384461,8.151172427123242
1.1999165708279305,-0.9210276707017129,8.439712168848889
0.20778757572858025,0.9995716337063606,2.4943052414069458
-1.0889739851188622,-1.8541066655657594,9.668072388388618
0.8355953792737348,-0.40545613450672796,3.6525957029116682
-1.1162852123986076,-1.3316994797374693,6.5982850391489025
-0.2987600452466536,-0.7879966230495599,1.1037888966429044
1.1477767780021921,-0.22798119757927246,7.394776816859747
-0.7418683266739897,-0.7872667045691183,0.41851523756780473
0.8392402393350692,-1.1710395126953363,3.869357109918792
-1.0806796431929382,-2.1944349682688395,1.3340723519916176
-1.0196707819762545,-0.496008214897974,9.002568949135446
-0.08393151522732835,0.9827324175476969,6.089491880096513
-1.7302044656158062,0.1033821442281406,2.570797566355659
1.092207792413838,0.6995672865023415,2.97513783894243
-0.11255874932575544,1.8686322103015713,5.169317390306509
0.08829345681616071,0.47790865772356966,8.786917688336649
-2.2970723260775663,0.815796409543925,3.136560058771175
-0.18945063658713213,0.7086938785333252,7.65596996625593
-1.670979641116282,-1.2749605216156323,1.8147270905012147
0.8508841197580973,0.7247517006551822,6.850056244904829
0.3292247765578437,-0.024233853369949064,6.665019836761022
1.6977449480554998,-0.4571777022094061,3.8906502101071117
-1.9981077218490368,1.0385391432991702,5.835911906869552
0.17099397122855825,0.1629726902396206,9.31170762804489
-1.344413345874968,1.8522227712170165,7.357571849079015
1.8784466953881003,0.38520370296846096,6.201078584527143
0.9659005766417832,0.4652455256075104,4.402746309871858
0.2919205057752872,0.025878033159002913,6.184797856856844
-0.8399227326964105,0.1518027402491189,3.2450568866403815
-1.3555264308817396,-0.6808636361088123,1.6667239974844084
0.18227694383620818,-2.2515496709942386,6.498114449746934
0.14882674484688824,-2.177495438476032,3.5126325245754684
-1.1752902161067165,1.3434443576020105,6.853184239508402
1.3807836026223825,0.08562289143703622,1.3480914855813853
-2.058413801409739,1.0975875953047174,3.9020650905349576
0.472742864979985,1.8155511129610942,9.900503624421118
-0.8718571519467929,-0.5910344643776296,7.339650633429661
-1.2737814337640305,0.6260886166450715,7.538991854838697
0.197461613478329,0.33702054747232046,3.984083711389853
0.8724616639258044,0.5376692846336927,9.292907952306045
-0.9798854060935052,-0.8553806203750729,6.853957331322787
0.14339514331959174,-1.8959703544735393,0.24652903175683916
1.2885172584617441,-1.4434684526884374,9.119127795299027
0.6733719777402994,0.09402521564883874,7.316513885569274
2.314504052780005,0.3275240025976746,2.254399616472255
-1.457635496538273,-1.2965163519112723,8.91020388106561
0.2665440497286531,-0.4226868735853013,5.425685005188448
-0.14383420858345608,0.26351151896084,8.142129477624097
-2.2164797133489555,0.03280810098835818,9.305953817738366
1.558248380443328,-0.18482200368039933,8.673528523581291
-0.3622410241790877,-1.6804349863742571,6.316857803663538
-2.0185043668004967,-0.04609035432709124,6.1374320673804394
-0.1212188362772317,2.1400734548849547,0.4405900160119647
1.2812905622308097,0.43627939324637294,9.447677725067686
-0.5998028832417278,-0.39924970656697933,6.44767330142917
1.017966347793925,-1.3572085896086221,5.438966867887844
-1.262991258259492,-1.0656957630185477,7.868167643316161
0.12088691077727824,0.3646421347237476,1.220009853852183
0.6328632440462376,-0.46002662822119955,0.9787766453017177
-1.7405413871961368,1.4298174531327754,7.861897325626592
1.1633133173544212,0.10905330262414202,1.5150603028990772
2.2266838402727007,0.48724820891731263,5.376670889557636
1.252684123424612,-1.9808267274804727,0.328110554093074
0.5647030734488038,0.7653593411550557,5.183690521518187
-0.4660401257551186,0.9584707925985803,7.156231114042263
-0.832338524662584,-1.9814301038394277,1.1419400527964585
0.033378319893364795,-2.12346865596267,2.050176692613052
-1.2705724624666086,1.3106405955089926,7.794692015981326
1.7128171254448756,-0.6190313637650823,9.880481905853616
-0.22018500357234239,1.1687337320401865,6.544572743960442
-0.9159545379983692,-0.04469944768255499,8.738481081908217
0.8444286264059575,0.5015657004752085,6.938217443065529
2.1998572948221513,0.4629519163447979,3.909795835236165
0.4908852128423259,2.2807085230640576,2.9891224626216117
-0.9408529774559907,1.12937511794699,4.5768843348143475
-1.7218350262893765,0.5022256096578278,0.25826454155173484
-0.39343636103626656,-1.5621166164021376,7.090689470067849
1.6799895519300052,0.7169966523187944,4.0747907947086714
-1.0576681459519883,-1.4534162038191105,3.5891153153858415
-1.2061250936444228,-0.532618333300636,3.7428294880348045
1.8124915923912934,1.1542641927746493,5.240483930098528
-1.822726735923017,-1.187316154041809,0.4613729604276273
0.9601470500980702,0.9647696440368327,0.9098839596765085
1.8265678929736546,1.4187895378531137,8.03048259923888
0.8726449681860882,1.9689174666752323,0.6781634902136091
0.7373368478942075,0.5309477702083423,9.989422146473334
0.6224832947459156,1.9652108785255538,4.621667913796227
0.37205841724326444,-1.3693481921379431,6.252568539497667
1.468099416087428,0.42109236283587964,9.511906758583974
-0.6077817821619633,1.0401114617224894,8.147923016027018
-0.5417728003076775,-1.2344333853677982,2.2734350065494056
-0.0831513296428717,-1.2146740599977637,4.209774520703481
0.7822958093297365,0.008821318164667705,3.9905184559496707
-0.30859213527298746,-1.35509349366096,2.889542150952159
0.8856385484282223,-1.7289778982082138,1.0566633329626496
-1.6926045830016907,0.03910512470386934,1.0584699462564484
-1.2618955954331852,1.4097878905918495,1.106217006767234
1.0887723405372427,-1.464432762892376,9.139872949390462
-1.445088257655701,-1.285896641463442,3.4137654578739873
1.999479114367837,0.9926552183694142,3.1602214474761303
-1.8448295184390582,-1.4865206356283371,0.5757580338653245
-1.1306820430053501,0.8712069011837988,7.539111478934684
0.4190748781296566,2.3816290669118927,1.6761825945329822
1.1538607554740876,-1.2746675244663168,6.14352914397216
-0.2760404925371128,2.123739250611695,7.416635924925945
-1.1099598876360068,2.0470599465717463,0.995503306676726
1.7810152587763872,-1.1530706655200713,4.34067258210388
-0.23339495697603396,1.0560609869235007,2.6915726529614648
0.41001371531626324,1.6600839662883173,1.976489524203019
1.1989503753230037,-0.22652213325437098,7.8829326082775575
0.8042529159169227,0.8888199739790373,4.50956632304056
-0.1570560783066714,-1.1395513915669726,4.081764017945471
-1.5586477316073573,-1.6651921730681587,2.703364372657431
-2.3627496432357065,-0.5018056662857862,1.1360479135839296
-1.218212170557102,1.840892860798534,9.468439959038468
0.7139027840996863,2.2081964642941676,0.5256597273203334
-0.08043597772552444,0.2377179266128296,8.266273567469222
0.8888478951000923,0.29628562124143126,3.664597639008692
-0.2010654434581493,-0.011406196266905375,0.8654368130195966
-1.0200973698310964,-0.844020294512045,4.985450994221075
-1.7760318278325835,-1.5883830686513343,7.478277253811678
1.8759119019019663,-0.7835004505730465,6.538689888402728
-0.4772479074115881,1.7704713822695761,1.654582537114636
1.2431329992515336,-0.52572363482606,9.721255867846105
-1.6442317224331136,-0.23736530209280218,8.816606787371306
-1.8655778411889616,1.0076876075334715,0.5002375281873761
-1.5290480889147704,1.6158831279014068,7.264249212668639
-0.8943513295038783,0.0888442495667602,4.201601065219603
-1.2694289689576417,-0.21970281030401084,7.118629416825093
0.5344305129524266,1.9821692469499608,4.209203982776938
-1.5856586564875172,-1.6932327292606655,6.581390852776706
0.4267040591738987,1.9241221417343504,5.565426497012011
0.4310426685657966,1.2652367668423536,8.596196650080648
-0.9106563643236101,-1.510105182077276,4.402621146575958
0.8388246846095183,0.3082165677817741,6.405489745432556
-1.412990153434263,0.7228944340501747,1.1345598708635918
-1.1788693833728026,1.2233511658437821,5.271553155693514
-1.271306509408913,0.9843414651372683,3.998741535490542
-0.8167938068694449,-1.2970945876656508,1.178037642830927
-0.1202039288200968,1.6794824811230555,2.2566325041756894
-1.4362347019803914,-0.8269087017538669,9.212932152630925
0.7035345200462194,1.9527113052197724,3.3909507942714088
0.06492859070367156,1.4731239588563259,8.34002533045775
-1.8621849524819776,0.2509226876857637,8.408660317161615
0.09274853115949797,-1.9332238735700533,2.914398264658029
0.582394796715285,-1.8301043403801753,1.927124064843303
-0.2961359011827154,-1.8891067404632182,0.8162657494264214
0.01461584580084407,-0.08349209458319352,1.257759431939216
-0.33663177749462336,1.3176715573645867,6.374249177790258
-0.44820459086569203,-2.104803087483202,0.4966316934761461
0.9331849738318986,1.6327442345928047,2.4073698710341516
1.5112392588410022,-0.41945416875124947,9.43439795062557
-1.083004394762271,0.24804256550362602,9.116529661839625
-1.5786483993009073,-0.19493213745415716,3.021467651715004
1.8980462956207962,0.3296380125663119,5.029101513957064
-0.44070102816319967,-1.6317980428238064,0.9802455984999336
1.5764449091940105,-1.5865801768264063,1.2162024746688338
-1.123403508338895,-0.3296178042948613,3.930896485282781
-0.20875781364237803,-2.011683849461639,7.020872687579878
2.357784381730419,-0.37518213937997896,9.17825229731989
0.06409415870385224,1.5336391682298987,8.445969955379757
-0.6412678900466988,0.44165561562221056,5.322920757136137
-0.0592985766630341,-1.3502168935823062,1.3516869353180672
-0.33619317878562655,1.721981461910726,0.20173937873155467
-0.6772739255263757,0.7822697052002516,0.21946700861287693
2.2481381513868124,-0.8528694137829437,9.272969352220455
0.5182464229844226,-0.08155831989246211,7.573451059772252
0.6077165933609036,2.1656205085666267,5.9869497870812305
-1.3886164415054254,-1.0173796150036758,8.871729457261479
2.3656064671161756,0.43348330228583465,4.412540122822572
1.105262746302793,-2.07312615634486,0.48029327947453404
0.4264595098146439,-1.3163558195251082,5.028051848091204
0.34191275153119255,0.5797706306126184,3.9679738164516976
-2.1536872654101282,0.843214448305761,5.353401599135026
-0.34488346848507934,-0.4177083872970787,4.759115604101493
0.7457362073638679,1.970819062396739,3.7685006117301176
1.951782291905655,-0.29873807675138697,7.8070637467642
0.6509749463005015,0.6322400135381924,9.00225486569431
0.5016253069973978,-0.04582824513073439,6.958255565487709
-1.3860900973152976,-0.37745834204590406,9.774119575004683
0.38064353892583697,-0.5512505401809019,6.907456013682166
-0.5306851109991676,2.2549113658726463,2.7787045707772373
-0.7963445370175897,2.1601749389458442,4.224474213130346
-1.582858155981176,1.4346896384982306,7.633949671242474
0.5052474789967043,-1.4939163466126548,0.34081047125408714
-0.32335483275326543,0.20800077243102044,2.493815702541342
-0.05262549293133158,-0.7492475687858855,2.4811578098835985
-1.4322362904050912,-0.4048833206831497,2.846439394013678
-0.7961814023012244,0.2213253457525752,8.344987855647108
0.6956261763560657,-0.05381588361188287,7.770424482724802
0.20665840571955485,1.9470217684820246,0.8291167438816893
0.5923076178422668,-0.7571509862383217,9.412403468413688
0.7571350414230318,1.1500955696116875,0.12752722022370322
-0.4696431625062587,2.339305025632623,9.22577928213917
1.064860763174978,2.1155121745619683,0.8950588427654782
-0.10398619505125233,1.008443348481884,2.3455836018327703
1.0896389798421995,-1.5856268292739712,1.6148095719248479
-1.3507819965185413,1.910907929064903,5.25477709507037
0.9234206740150318,-0.08327337720447842,6.866850121938533
0.3745977777356,1.9168776648472996,4.204535897909968
0.639891981542276,-0.3913866641466714,3.0464129563883278
-1.939609458344521,1.4230567352270507,5.377514400536621
-0.41297197362146537,1.3616803321381927,3.477939862837961
-1.6272799723625408,0.2561447864097299,0.7308760588446006
-0.4062534762832812,-1.671060432765017,0.25020747013670963
1.1567245451693118,-0.8355582763643106,3.5061992572340053
-0.14167310106314276,-0.47712294255233395,1.5143905321161055
-1.365445547532741,-0.3780113127977002,1.636366956434927
-1.4023702077711864,-1.6329311622422378,6.00770195458391
-0.9005796546306859,-1.8810648327831492,9.239114573615252
-1.7108689046702843,-0.08033199396818655,1.9590731243077497
-1.6141444267805112,-0.5224983166134938,1.7655289983890543
-0.4044488914784247,1.9234132991359258,6.829918350359243
-0.2632204461921358,2.091034616944482,9.047544608306698
1.0454434804624917,1.0898241079525581,7.507772548007611
0.18181772036133897,1.9236318601269677,2.426510226112507
-0.6942491216349088,-1.0279136381618026,6.856565389393788
0.4039481265579476,2.105275785573087,2.0901660070711428
-1.4264658645555959,1.6789907715220964,1.3377954486657961
2.18258491356549,-0.8010920253292103,2.977799921470383
-0.7600247153513161,2.037240905155902,6.49495354757158
-1.077909152850038,0.4003279537122276,5.416107457330867
0.865778266195135,1.9650278750240275,0.6029972908297032
1.0410712143808705,-0.6512826888412997,5.337076309529043
0.17921257213294756,-1.481457970267718,5.316210817735011
1.5859219278653391,-1.4917585691400699,3.7695974391626343
1.0696818671498298,1.6519022580099605,2.9211869622219955
1.1126204038811942,-1.1363286921270563,1.2541300850838122
1.6093059202584972,1.4695798895814132,5.488334645858091
-1.1829195303532078,-1.8725158367777377,5.66856192971673
0.15706527254425046,-2.4406510284887326,0.6495361215213458
-2.278052492790008,-0.11317080517071566,9.747473621091377
-0.3158666086735619,-0.354805588861643,2.3457099479578836
0.9063751313875938,-0.010144978834812296,4.193611232927602
0.27901385986194005,-2.2111800406361968,0.568808533284928
-0.2747034381987784,-2.410462130088072,5.461633078348874
-1.8449541181187605,-0.580391431949802,1.9923039869011616
-1.663086896565691,0.36789376153100195,7.629253716691208
2.068308037918071,0.7117500411484715,0.8031551753658217
1.5392506744895378,-1.1778560458458651,0.6622334347566072
-0.18154645385049203,0.8484015221636408,6.572371250032981
-1.0352749696706396,-0.05726889917514843,9.59287697342858
-1.7888740310767532,-0.971295274933312,0.738352090283535
-1.6055116305772807,1.2141559499738181,2.3786230515007354
2.0575453232037724,0.9083219785365596,4.994706194723085
-0.23328899939332287,2.286479687902439,6.67473371387714
-0.09114151667173327,-2.3340483730071298,0.26568527359224436
-0.16966335867504678,2.343415830475131,5.484497848532016
-2.244757479524782,0.25923018926146607,2.1874953359201452
0.2816559467110582,-1.2578194588372191,1.014861482074717
0.6933908655887121,1.95815348809121,7.967402728767312
0.03536220665030257,1.057475999662281,8.830523647729468
1.446607751139499,-0.9511499043820685,9.69240976880834
0.8897619996523124,2.1685152026220194,1.3846366708032143
-2.2572007607220397,0.5236595142659602,3.191580186859352
-0.9541993350936634,-1.5431592904451563,0.0593030628508362
1.2050573450339255,-0.924756096782896,9.597866921703242
1.7992440310247704,0.8097062578351317,4.6418167031705835
2.220630903440531,0.5086228050954839,9.55980863477801
0.7548821647383013,0.9682825693202746,3.254769210933234
-1.498297466165472,0.3322930518198242,5.159612545545549
0.44543624483442124,2.2564657883870396,9.640475626200123
0.5261492895009052,-0.798966748021258,5.232919185491496
0.7704937831400852,1.794901253975302,2.1883339059929052
1.441724162374502,-1.6584437456492709,9.174311085677743
0.8701401729968705,-1.9543910042455364,5.521515680387799
-0.8079431612065368,2.0780615352972505,3.6491816468641183
-1.9226801250533208,1.3575061561877133,1.201062390540113
-0.1440111661759537,0.5027598656033393,5.12962036580894
0.973013571985431,-2.1283163584221083,7.724169117509211
-0.450519813678519,0.7140393266675462,2.954586598834691
1.1289025131884074,-1.3463227644011582,9.885941456991361
1.3752050548798682,-0.4081394023782395,0.7781453576989583
1.9691575833793438,-0.4853551100929978,7.505565788076991
0.10094787663465653,2.1709117108053677,4.620308854090418
1.1886411184686014,-0.1374508572810258,1.528384508207924
1.3426804619263706,-0.3414416647933497,9.821684195546412
1.0801855128940416,1.9088435912342023,5.122497346670508
-2.294224723487762,-0.16966908764472574,5.1475944074880555
1.3246495337054673,-2.0230508641176903,5.069644170855629
1.7250224835161108,0.22195283465538873,2.9233156631155035
-0.2101780963077925,-2.196690668431076,3.948969767585183
-0.12479061213706215,2.2600198047987705,5.548912425631565
0.9981938651991258,1.8115360661430033,0.6959005876652269
1.0325907034785708,-1.3165257094551643,5.039672332444512
0.8975230065613748,1.9661100050663984,5.412314738526659
0.5998024500207397,1.6834740125183192,6.501840198646366
0.8193883796442174,-2.1340859920547506,8.605633844947162
1.2765983103031187,0.5229739408794425,6.320080799636583
-0.2837512845208329,-1.4251271034771957,4.235123786986215
-0.7051974840392115,1.7288961860350343,9.541507485189268
0.1756262695837831,-0.8922257881585257,6.082839446008162
1.6789638139389171,0.19783337933929962,7.353322436240056
1.4502454152779165,-0.12881621662227624,4.417885286112682
1.5822996493118722,1.481565697638177,5.767617190550801
-1.99261587326667,-0.3857267400748755,7.050896621101948
0.9126860309348992,0.7701308067403049,3.1818437141531275
1.349468952290884,0.3943094803280802,1.4299188226431936
-0.9630283413378655,2.0309467163539807,9.248513275851147
1.5604276893013203,-0.8027679142912745,2.256206236003786
-0.7023449554712101,0.1503285902147947,9.931579936728278
2.1057347665528354,0.11944394722682071,3.141925166618602
-0.07977593322505266,1.7970048338213112,1.7424610123651052
0.8275679552750357,1.3480974622214381,7.589139634958956
1.1776192133858252,1.018250431348997,7.863943100103112
1.5143734096977923,-0.10065242391220612,3.618321996695024
-0.8050015559321237,2.1006410599306986,0.8264948590096433
1.4360172265823132,-0.3785506053987509,3.971011789550433
0.22688944178166853,0.681164318678934,0.5592126608220782
0.6707639017419497,1.1470788676617578,9.474126344547706
-0.4542312237803274,0.5834105423066733,9.589845491637291
0.02107222770132331,-0.3068698625944744,3.085310998740093
-0.5838987709010006,-0.34255201001382474,4.617902034354435
0.3969767180690814,0.13231755185833963,7.277498322618286
1.804473840180303,-0.829295079643347,9.816701704081014
0.12919202400462818,-1.6024713549906195,8.664413096358789
0.831830490173944,0.5755191798744111,8.01365478289614
-0.8958279927474329,1.4759438550524713,8.730198094538528
-0.5575127865506948,0.0520540474927386,1.313649907276906
1.1707852026447105,1.446953528807622,7.5050507852999315
-1.4029650630704564,1.7495164358877306,0.980069875126206
-0.7156021122743126,-1.6543598871229654,6.842756605707482
-0.5608579463032837,-1.5480497952965961,4.9395384732864205
0.8847917274751779,-1.992287089179914,7.773025763853168
2.350214563950931,0.41857641140923046,2.21473173071145
-0.6520731591239826,-1.4384018236033744,3.3139012425096404
1.8794623740445526,-1.2198129380025386,1.9783545554543658
1.1573196835356423,-0.6988525173685635,5.211798957859724
1.9795370025116044,1.3759946959692644,7.149469696674644
1.5686475965837003,0.4302051639683269,3.31634613811148
-0.18091872666845593,2.1035243957405023,7.197337684667997
1.9041903346006026,0.21594528414772768,7.450990381914627
0.9090808772023987,-1.3637360845547708,4.636647964832661
0.6717369492061961,-0.05241499577615354,4.0750847581452065
0.6950374084380383,1.9148258066631962,0.9095221589761604
1.1338521443303846,0.16008010494096947,3.2526977707714955
-0.14189966381860644,0.4293029271367021,6.467499786378249
-0.28512500576926825,-0.5513030484041604,1.6181878776152459
-1.3263449325494845,-0.8927575565350478,0.4549257142518637
1.1379669540048691,0.8013026459026144,0.14422868831180824
-0.3434764687746283,-1.8686263862746373,4.708575680492382
1.8239456441929276,1.5449469894879857,6.4915964815587435
1.9832189381219267,-0.057159243571656554,9.822429095625996
2.177906234974999,0.7017353087457656,5.104216876994473
1.9766257872760162,1.2015097549676421,6.642861259918541
-2.0709225691600133,-0.9781063764942204,2.8461269956714617
1.7236416485274193,1.0133028029611533,0.8397885326095922
-0.8177390329432125,0.059179779703610304,9.601484412582028
-0.33322076145232693,1.6433647727186789,9.399723049361965
-1.5567702963358772,1.6682178638144276,4.857792655309177
1.0861181099665156,2.1283867221110464,1.0676112354674228
0.42762558518288474,1.140808204124233,1.7620712451182352
-0.7359635863428595,0.2402416167379083,7.392063189705781
-0.9479235928267172,2.0545592723474284,6.914964729666786
-0.6838376203530377,0.23288793819574216,2.8253493452093084
-2.2873379569425825,0.40985247622035875,7.61918118078849
-1.7882555077028917,1.0879034101945824,5.9215047629474
0.13594482501855104,-1.7738181952596943,2.046101894825739
-0.31037408653746,-0.0060462656666562045,9.636900686498961
-0.8492381719095392,-0.0007062220777868735,1.452853820315625
0.29358455424227453,1.284994687244862,2.0274119666897814
-0.43460967268443673,-2.4105629977084146,7.0443113547823755
1.295364521347639,-0.2869253199087566,7.3392433918780045
-1.0448326600497437,-0.8755174676771893,6.601151679132309
-0.7564814988117219,1.3895826224585148,3.834289852323308
-0.6153188099747352,-1.2896402735257675,6.164640295566044
-1.440220113797007,-1.12735889812313,5.784451877975747
0.09398036083222479,-0.731225773065611,8.963187740898828
-0.6514401199134034,0.09205564251985786,4.793496209330931
-0.3337414378088706,-2.3808983773438244,0.16283451775030433
-1.7834881203582125,-1.06695740891783,3.1293502498718695
-0.4025466475554837,1.3549134724137444,3.2674506815039006
2.270487303914089,-0.6143402875635856,4.208308864428974
-0.8892324154551069,-0.22208057603665976,6.118290589785137
1.8376243744768264,1.0200288466371041,2.291725574193779
0.19855200484371924,-1.4073357605840855,3.255613267748283
-0.6776989627608423,-0.9532072189985498,9.934867201782835
0.6209035874996413,-1.1220909371908507,7.228585441724579
0.3999885216720529,2.149991095507705,6.147231689457798
1.4826323195337692,0.0836444166728814,3.395183333428534
0.8412246677361606,-1.6173254041360317,6.277613426903892
-0.36966822664369925,0.5940764529573873,2.607998414324273
-1.346886652649981,0.5729771122425255,0.4764898784735705
0.6606623779802753,0.3330822643116532,9.785560746387276
-1.675242806881399,-1.3246463076587836,4.491280274516502
0.29984017820749137,-0.24178116338381594,5.8548051706882855
-0.41878453906492946,-1.234850557355523,7.1323027801870715
-1.6067120096109468,-0.7968699666579162,0.5348614167573673
-0.3197638658642703,-1.6363285920225805,5.2801852424714095
1.9443420843496373,0.3322182645896167,2.101406649684978
0.17176401051273463,-0.6635556839584072,6.799895520560337
-0.3984978802494398,-1.8145370759526325,8.741883982268677
2.133841864998176,0.8467287114922728,9.084350312758446
-1.7171778847310695,-0.26348636250219465,2.8303200702581464
1.2239711742492025,-0.5609891463972989,2.402149578771142
1.1963141885941675,0.2074577359862877,1.4052221968721679
-0.9109701531752634,-2.216593153757711,4.503333924019598
1.4231747823769567,-1.8432254471687444,4.873957866044356
-1.8476095347521089,-0.22046017672957463,1.1338812358541461
1.8224356772191141,-1.5852237774105153,0.31753347686797495
1.6495776491316543,0.3295951014597581,2.4810840766009967
0.7518549575316965,1.8963287049005235,7.351286057805318
-0.8827047688834027,1.987746486933179,3.4160567382305373
-1.8900702567601038,-0.7463800731729303,1.6545694893105056
1.470646166974287,0.3390959838196757,8.722992309671458
0.015607868192275753,0.47995744391061795,4.266580691192754
-0.893673195050729,1.1015945537160028,7.23451088828593
-1.6382884296186973,0.3265024269474097,7.487913508726888
0.16398414751990822,1.3646944079533574,2.086590017858655
0.5155476627872683,1.3745461702672788,4.302668904180389
-1.96557205439298,1.0834322858598002,3.110870118881844
-1.3561605417906413,-1.2257394320671688,6.884828133514201
0.27814851286324777,-1.4884059434296508,6.181705298970856
-2.0799094934980054,-0.5279931374513184,2.7351895053429596
-0.304020149852621,-1.4058243093987606,6.38521914745551
0.8684812082296757,-0.4788734171687557,0.7403168288929407
-0.3067566545811607,1.1397401612629507,7.098161928205724
-0.9316046713933939,2.060923286730023,0.46114945637013016
-0.7713791158794614,-2.321632796877664,3.102461090431458
0.08178629499494666,0.7940437221192949,6.226221770566242
-1.7607769555113169,-0.7457623036254413,7.863515585266513
1.3877616497872167,1.3291561139450936,0.37910482011838664
2.006436389094562,-0.7233962159331835,7.206253395561522
1.9175501845904224,-0.22035015993653112,1.8287126948472943
-2.1948394072960333,-0.1661018717134212,1.6221573870871087
0.4711218142334812,-1.797235080898869,7.231895704877475
1.9848272658932695,-0.4668462720679597,4.474387313589652
-1.442203110921085,0.2629855776528488,5.494077381269906
1.8156288976688433,1.099366062528526,0.43584239118159784
1.171180443247341,-1.2457854265416448,8.570198602082943
0.47696939114230735,0.4160198395421663,0.7963431968151324
1.2158741987697959,-1.8940565672337173,1.6386294354365827
1.4351704865557249,1.1598500072240991,7.712360640665379
0.01219471051398638,0.5470504199113861,5.370750208302814
-1.6372335131029239,-1.0767622180410437,5.0498841421347604
0.28670653070942564,-0.5246749154146112,5.92143876325151
-0.8707590221148588,-1.0687045044481405,6.512474346978151
1.9928933326479006,-0.7203375067719638,5.677491861206717
1.5211755127472928,-0.822541456892539,0.7794544357440825
-0.330019427346437,2.1207072303532586,3.3398686418154244
0.6711432237345243,0.3924259234762055,1.9490886051772993
0.4677016461780802,2.371095124129181,5.583993614631428
0.4777512888959435,1.2607137604996914,3.2633708994551283
1.0358956619309,1.7777804274693545,3.2138216026906474
1.3438876044348391,-1.604389836723085,4.29889154200554
-0.7716061257591839,-0.6419785018450963,7.0629002127101
1.878082912650535,-0.07026949470834569,1.832672739442125
0.14282974549571698,1.74131181291613,4.200757379153435
-0.3343207151640041,2.178200835508285,2.5989770265015064
-0.8276425475120489,-0.6610045603037767,3.7618388339483855
-1.011968437545584,-0.8098522371952717,0.10322744312046495
-1.3668786802065334,0.5251359718653378,0.06294198290810238
-1.8437239403569095,-0.041682779254191664,8.159995136897601
-0.8923372616511216,2.1719815349561604,2.1904042784126565
-0.8941766728654067,1.7930321573455559,5.038184015961567
-0.2419623328560564,-0.7534908282401149,9.202646239523837
-1.2726605727095317,-1.9498795410926884,4.030253405967126
-0.7688434609526256,0.5020025662199524,1.5442951850973763
-1.4466559024246919,-0.7690795440748079,8.594666052436043
0.4042352890192302,-1.4582269413982971,1.894446794585718
0.862456628050272,-1.4644482109597943,2.2234499319242773
-1.1809385125753775,1.881145642587515,9.951186745048522
-0.8465828791100346,0.29083971958795396,3.1584613554355045
0.8384482673080746,-0.013547929988307792,3.8769492071283373
2.0437359189302575,-1.2624390068404059,3.2027252105084
0.10630936114393406,1.0308047489324825,7.12684255300498
-2.223517389515042,-0.8683776456289154,0.09355961339308383
0.7962090414588927,1.433937146911469,3.239175930437547
-1.088989790111302,1.9171176013027813,7.1705139482277955
0.7461134937403553,-0.7593155426637348,6.387677453586176
0.2542193358325562,-0.3671222258400189,8.435130134181257
0.8172592519809626,0.8765339076500506,6.696885066707781
0.2222211592939889,-2.401147896667776,1.969483361904043
2.1645938274467853,0.05846767212925468,5.864921930000069
0.6433289753964604,1.119694083498867,2.426771108872731
1.0562636484764831,1.4958362596607702,0.32699278112795716
-1.3012978010268932,2.045114224712129,7.057004206064229
-0.21091482598923061,0.2156474979638388,3.842780884378978
0.19742547640938968,0.5163916994530235,3.096036936697808
-0.03767307070571576,-0.03897300168190947,5.856423683326194
-1.4115326353902955,-0.15245351632031814,2.5315657294217244
-0.8429854154499842,-1.737183899626639,1.4831468490355282
-0.35613779980191973,-0.8378611692851858,9.92072531962375
-1.1121281528524385,1.3262839924586443,0.7566587345754217
1.1169644981716447,1.141235924791658,0.2681384413755772
-2.2524259854218487,-0.3161220265668965,0.236346106410531
1.44356686921665,0.7927533064026813,7.897656714315708
-0.5983647145429641,0.9874733291718732,4.118577521290847
-0.23845883041297772,-0.2998839554116527,1.148110230301932
1.4000895524290475,1.1970306264936914,0.5224858928366505
0.39688935200390385,0.9336306526936516,9.642663590702643
-1.231672011082832,-0.8228484483265767,7.061664560200166
0.6379986907727246,-2.060620903511418,4.79601270391822
0.9079393355068173,-0.36343549748424475,2.515800035457479
-0.17565131430804856,0.35254592929636747,4.2933485093478305
0.10361044184220541,-0.7667795830878589,1.713748567873561
0.40881747197785984,-0.7145391517556127,3.983001326997122
1.3631787267237467,-0.30569673471368963,7.882203801170879
-0.3580069884049712,-1.3910818321022222,1.5971921300652148
-1.244118390904531,-0.08359115368273344,0.2687095464124889
1.3319014957531192,-0.5930709791701118,1.4545634239894056
1.564171342363755,-1.4191914094222666,9.153037477611006
1.8987150174098784,0.6854591289482393,6.866452100751203
1.8526404654587878,0.6825708262209583,0.866151725563955
1.83117991986611,-0.8962924692590687,1.6549119639374221
-0.17004923820994144,1.4991332341519819,8.141473448415402
0.7958326225549922,-1.2158576824725602,9.451997240876935
-0.06489787809051771,0.0066562536694567765,9.546753352709397
0.44745464968303666,-1.8221643656018602,9.443951115162584
1.973382761564511,1.0208213195745037,8.240404025134609
-1.1916553085209516,-1.4591564490703006,4.690674965435492
-1.5580912821930322,0.6906778807459025,5.735806411882792
-0.6009340855433072,1.947897345075263,9.193283317070147
1.2543939686938044,-1.1276089793087938,8.022046815207563
-0.5617558369151494,1.652060910981718,7.597088228214377
-0.23250176514786727,0.3400169749480172,4.793338546821576
-0.19296353190940457,-0.906014511809119,1.1364789180394952
-0.17713640202167572,1.0794489442478254,1.9023816044610975
-0.7836521263606164,0.27247200322196014,2.835449289872675
-1.27755626278832,1.3017632490797388,3.5163109030125983
-1.5156450464038957,-0.37041216709427993,1.9432697998001969
-0.7021983050816555,0.8494974901865117,5.358663913109094
-1.2573945285645614,-0.597675732416861,4.2755427828693495
-2.0924514799077043,0.7544334854882799,7.657338585993597
-1.8557779059097428,-1.577872760858299,1.905835850869303
-0.5512911363651298,-0.20472362099723604,3.7848055679583226
-1.5608540266311939,1.5267046385169012,5.166783472673359
-1.0696876517779628,-1.0358613268191696,0.04717507995511405
-1.5332641855198867,1.7651648361613854,5.728509597344131
-0.09438748031220191,-1.9146530985970558,0.2528626940500389
1.5009426808151918,-1.335990200604414,1.393485927790581
-1.0506184924157342,-0.4817358060225672,6.906462189324291
-0.2169784269810887,-1.3840624917193738,3.1301756922371817
0.054321388985522016,-1.550000573098443,7.267360983396852
0.546839190995553,1.2033855815658991,9.755566043727201
-1.4428691702248757,-0.2187658684436896,3.8597117985074547
-0.5285120776247589,1.5371951947109734,7.375472064676659
0.14139280309954927,-0.08807565407049929,0.820098822252695
1.5834705317504965,0.6553656119104673,0.871285929151846
1.091901518845711,-0.5209530582214,0.7483031596853162
-0.5600533071881236,-0.566911467406749,5.497028326877032
2.0735349646552073,1.1164745261106632,2.5614749235511414
0.2623728409264966,-1.404705665270349,9.851303063815575
0.1482961103851687,1.0990133354851956,7.16741632498479
0.44986873739920163,-0.6124283798993554,3.2309765919246223
-2.2021880018018654,-0.5744211956060578,9.472583405578012
1.0329329791233504,-1.443397174209757,3.2663709774480987
-1.4378993231424957,-0.916394128528959,5.546047501199899
0.6406072602822974,-1.1813072932975142,3.6378503926772545
-1.188161293080381,0.3998643137169088,6.460920410218608
0.4744187838469725,-0.6299885315427924,2.0836015139483566
1.3743931957533406,1.9543037384414708,5.062282939832306
1.072315599548763,1.5752658552937289,1.6034684931384124
1.276912531018823,0.8030937897306073,8.379123899951889
0.5149077581723237,-1.645973045945054,0.6811535505265776
-0.23497113698669242,-1.202812054174548,6.730471597693592
0.15352250639902967,1.8095208989051568,7.90137057610786
-0.5505484404406933,1.6622854779404346,6.434683055763848
-2.100634495456187,-0.26921836801003785,2.620458682156012
1.727162933438441,-0.6825239416848552,0.9660512384549469
-0.5738931485500158,1.0610326286985978,5.020318216123486
1.1718150135612067,-1.8599582573892295,5.09066835946829
-0.3663580182431296,-0.3095572211621008,6.4579428030292165
-1.7888940161052265,0.07766091148954364,5.587609382777279
0.08867874193981366,-0.5354186638296309,6.898320329250432
0.3752744017875746,1.7279240443342487,0.6207131762959428
1.2134590955622333,-1.2692574049886538,9.57990519825071
0.9003820453084737,1.8815862254018314,6.65131162553487
0.3754666849189074,-1.7527427099568749,5.102938844474561
-2.0287844238072945,-0.3180048415983933,7.720538011050344
0.47068127793599757,-1.4379151838210704,8.78064856389043
2.1596272979614324,0.3090350995800434,3.6172477245726165
-0.7430040271240873,1.6361154681072188,2.5877050100244525
-0.5725827756400879,-0.762839814410419,3.092771146318297
-1.234258531882952,1.9178826687674952,7.143474452548126
1.0460693347654821,-1.7113731484116628,6.315204669311283
1.4752386418055208,-0.6279586739101904,0.5707898004541923
-0.525625037209716,-2.002703210895714,9.599115349012301
0.951891798375876,-0.3496262119800598,3.7533538910900663
0.5156801889473921,0.17352358402865836,2.179297898717972
1.2120928707706404,1.0460097345725408,6.166830286143546
-0.05790224538155382,-0.03919784429590216,1.2351660411767529
0.773446060626799,1.7790743907073328,3.0022083060194085
2.218770282442926,0.8560701065104563,6.727182191850474
0.4623355209737222,-1.3428949161385235,7.462252443734727
-2.113648529913428,-0.9647298538756003,7.217789713228205
2.1235303349123797,0.12764722584915475,5.787974527243388
1.139550549869233,-0.6670624861696287,8.599606236314365
1.3257246357358716,1.3743758592245654,8.35638666307473
2.014153534116058,-0.8505110251006917,7.622979351693029
-0.11938085210048448,1.464642852736198,9.96589872213976
-0.9770157856141476,-0.2796169463297572,2.5730056974562396
0.9749753421926177,-1.2899389132334895,4.584257198261534
0.9886641173953811,-1.192930768482892,3.858779376148415
0.28683923700083563,-1.7965575181827524,7.843378535371909
-1.0554411073732255,-1.0627922215228556,8.268365710715763
1.9031198014935768,-1.4847775895442614,3.8515209643701454
-0.8779549819762043,1.4994669810636005,2.6450333242103765
0.19806839408447396,0.29388920784329026,0.23108380283908936
0.1986392215350902,2.300965216559492,2.125989768765595
-1.2843954231490253,-0.5169722079542397,5.197715484665361
-2.038066305076996,-0.6034142028339231,5.79718588308217
0.8607513726823636,1.9485821373717418,1.1077822605383247
2.3656113277243547,-0.0999450076058952,6.415910797880643
-2.148699203782017,-1.0806061769050717,1.167204606145258
1.9417994681328743,-1.3737672012863273,3.405013135115824
-2.3407448802313087,0.5918767477062983,8.709348489627581
-1.216135880012432,-1.3729170658805536,6.8138473758929505
-1.0374595766606909,-0.8591023213178012,6.814219584330544
0.4640797601781085,1.8755770352517047,3.863825472087851
-0.14837975134328626,-0.8214440312334718,2.1844214866298737
-0.2050389104900296,-1.7614734442103583,8.355638371424497
-0.6805520772944574,-0.48138135255269404,7.216899251011675
1.442448158158577,-1.9287802725336347,5.631737078063326
1.584984355146963,-1.0097983935642563,9.471907885701853
2.35987588672146,-0.12541618057291562,3.4667219559858276
-1.4506677943968804,0.04848456005043352,7.149105632055024
0.2472906792170195,-2.064596064071974,5.23615961877392
2.262674813446843,0.5616592789307762,2.967891216010888
-0.902403036120832,-1.553187420240398,5.3819435015748045
1.167545765058055,1.1370694250524376,6.539244776933532
-0.5357204306689118,1.6043813901274144,2.5929042092976564
0.7483933052558169,-1.3351855565547694,9.519631384210731
1.9435632954434743,-0.1742352086115908,5.593789605312517
1.3599880651350502,-0.665658251761834,9.851676790184303
0.03199919842060744,0.7969011319548914,0.17787615452488525
-1.4186584131029674,-1.5504930408577309,4.003420356741465
-0.609325732104397,1.284657769839477,9.081809939821547
0.7576411076974847,1.677998729570618,9.260946473304323
-2.229854769161567,-0.9470860211360436,7.987798968230719
2.202582209677466,0.006090661511162446,0.15187754123684338
-1.3377880224832766,-0.22126142754579495,1.6601461658706107
0.5574843201688485,-1.5759947790643822,3.629839652398502
-0.36055893425122404,1.743548665662899,9.072922780198784
0.40707641166470365,1.8289983950079394,8.031821385639926
0.3324912449708495,2.3328647982337856,1.4405923134128418
-0.009141173452933294,-0.6952671937792471,8.2366867954126
-0.9256862854761401,1.5016501818928796,5.41610330959686
-0.09213175442981836,-1.0478751019332062,8.536773257359272
0.7011600340000087,-1.3328146280006588,3.7080621743148114
1.4657703035866176,0.8052599385935819,1.068845906992465
-0.8303267148136766,-1.556424837897829,1.3927713650347973
0.34405223728566664,0.36603466761327846,2.919084764817778
-0.029677030548547152,-1.9820569610502905,0.3545486429353595
-0.4002038830670285,2.000708919134872,5.065634901696327
0.9681304375640454,0.3144337191480712,0.13042845790640634
-0.09515549897065835,-2.179499130233868,2.498406706113606
-1.082657513168265,-1.5973978910996425,0.2701974039896027
0.3394321109996581,-0.2802641883954396,2.9531951306496196
1.6711587608307241,-0.24953275953386397,1.661591654789456
-0.8372568339986287,-2.283821467552826,7.641635813096683
1.1565625071602033,0.7398202489392659,0.26714688539807296
1.0857095222104463,1.8699608691320728,3.98952924522463
-0.753931727346861,-0.8615408769235378,6.017440218638429
1.3663094450153084,-1.3967327234686098,9.652617603899511
0.8809948555695667,2.2032310828044843,7.6337372708853755
-1.5685633507567127,1.4468233486212683,6.062333010544623
0.23148390657888737,2.1065092683491122,2.50851003567768
1.7934914806540454,-0.7395004223902087,0.5917780597365407
1.297291886089104,1.3381471869717898,9.77065431647434
-1.312933825073658,-1.9377155020563046,7.25384792676376
0.610220052642927,1.3962436640221805,7.359764119629126
1.4857304202156376,1.8236998901243768,6.220397811190585
-0.45843905549562036,1.405933042821643,6.320342163006709
2.1595101008882467,0.7662037437639995,8.711274903186428
-0.18180110496118743,-0.3429262539326116,9.954959742638295
-0.945656241833706,-2.060165658398546,9.976263923094884
1.9239863705864846,0.02411914735627083,3.8081890088651593
-0.681989942991653,-0.04691471249096461,0.7643161544234867
1.3452107357589012,1.2432955951124267,6.1503982834857585
-0.873866108822759,1.288651651510261,6.972871554448429
-0.46607795282683323,0.3012288579250442,4.080229372209509
-0.42680625850795345,0.6200350934506105,0.39825073804789723
0.36905673067005185,-0.8272847816490915,2.2261469918197143
-1.4398719892402843,-1.7322349873883662,2.4322513127910375
1.58464270979651,0.9272870649522517,4.33444740150102
-1.5274924117391706,1.2676996894058847,5.637662358673308
-1.78063911647178,-1.4794583556205683,0.8830311546210623
0.7912643067983187,0.6858956959916008,8.507416617416437
-1.9467791866346909,0.6483184309972111,5.766670045381116
-2.108013874925976,0.8549954322129769,7.821494646108176
0.9795625607816165,-0.36582939865196157,6.307716425912066
1.2200848704754765,1.3471678390498674,9.119313891308948
1.0733958012655778,-1.0744423955032385,5.193292897872656
-1.9995670073689293,-0.20718527833993436,5.918385583992034
0.8001562812032627,2.310080914144749,5.358396312442652
-0.6188188422212165,-1.2016400122132131,2.6852829117583985
1.516366008053678,-1.1010098486847801,9.631332659946645
-1.362346117614705,1.2465082046258176,5.701352941772008
1.76686697169342,-1.587488013004759,3.937769344827834
1.7172280594236988,-1.5805915463820037,8.352359513528254
0.707119529599129,1.1907021560445743,4.497112514152407
0.7596180837155807,2.0461877246032816,1.7952301960455985
-0.2051570911422894,-1.0675785893072172,9.213051842071533
1.2653186858706849,-1.0304392471729955,5.302424514278883
-2.0575374236219846,-0.4537055548047033,5.7932177889482395
0.8946214569055335,0.2170897696873128,3.179403584672076
0.9959070883853204,-2.0481586822654343,2.41116417438909
-0.6080141459062014,0.9814950319262166,4.090346222184897
1.3603782410195704,0.9986642284640901,1.5021537407032304
-0.5885946370625467,0.8190314182233681,2.4615943997020384
0.424887677853073,-1.677344738844764,4.136683969357203
-1.6630980148372265,-1.5578769355980835,3.539465417123393
-0.9990884820234541,0.35567007598454137,8.878418291892435
-0.5863761620307777,-1.058686146663563,3.0703702377258715
1.6268886519650518,1.5367649379468986,8.663040708800771
2.0015787470925734,0.6888158658821616,2.066560116708297
1.4111957796372538,1.5525772501015016,9.104824742821775
-0.04330379368761131,-0.40926492263877406,9.325319096214741
-1.8965595522769663,-0.05758384720659493,2.776446836237417
-1.7762797202810356,-0.22205983686205233,9.739615077681913
-0.9715784598925152,-0.4813771863200468,4.080092639783546
1.7468629628111019,-1.122787186389041,1.4757510986081357
-0.40521970129098345,0.20246752180710045,8.776361894929783
0.585841252649636,-1.7990032349731508,3.926445655697278
-0.6549896598749205,-0.4972626215607071,4.653335885497109
0.2144759317403975,0.8449279510245739,7.5135399064429595
0.0010342469237929095,1.365010541256445,3.930082556149772
0.4854237607354455,-1.1385286204597387,4.358458841863682
1.0569935121640015,-0.8512074001134177,7.186794572102154
-1.853244359914887,-0.393364763615145,4.776728812374137
-1.9171091685179098,0.41995818976832183,2.12823903870351
2.37410074533929,-0.536372467266992,7.9432965186071645
1.5446451407122084,-1.2834992536802714,2.9174729737477967
1.2661643597522125,-0.9596580167225631,9.885193819561048
1.0671648264941245,-0.39900814258993567,8.164701956209912
-0.5799840938570466,-1.822809764520934,0.03999588100639939
-0.12146145686836346,-0.26519008724052395,2.0320160695629608
-1.5936796912996134,-1.66004173062014,4.237387520526603
0.8667427620256286,2.2613399828696434,0.5936885750663501
-1.758828276499498,1.5872879062757694,6.9980401728285795
0.4709517376641734,1.4688027292492052,4.239681487727902
-0.1958972498451288,1.531990986822758,8.305859934762044
-1.0885576568133217,-1.377997026326446,0.8657120439672572
1.1328745021575741,-1.3514759554082707,7.801752899223412
0.2741851012495681,2.258322055597975,3.1842720509421643
0.49435675776827226,-0.3441129753109538,9.859371130859973
-0.6245966449111716,0.3627784631877876,0.03407012782111529
-0.8606621950818294,0.8520544341181371,6.632280609838077
1.3616060871571238,0.9967923740780187,5.346356476327142
1.6620973026987023,1.3371553048925169,7.405891631592408
1.999244765141626,0.8668367181131306,8.32843326290294
1.1751858911885564,1.319750777209429,4.447314728102127
-0.05620333603014491,-0.9752883856211063,9.830520012983236
1.1308829060552898,1.6368373569586094,6.780645789486411
1.9275371865232718,-1.422628203496351,0.9170887323392318
1.6301110188723704,-0.17400033335908396,8.273409629981556
-1.3957095673247384,-1.1905362337979934,6.570466996297544
-0.6121806883361434,0.7469508905048577,0.5195495419923557
1.6141692910657357,1.680692905975733,7.077856691142421
2.0438249812543474,0.20603856820255523,3.9448395357815547
-1.7233257492299723,-0.6385237595565401,0.37710905802818995
-1.896122635018376,0.512994037035306,6.666900531291619
-1.2507383953007631,-1.210539230385569,3.206377102736914
-0.4449675969376891,1.8465484658661928,0.07165714757178976
2.033087656215109,-1.2638482465235934,3.9118388563710873
-0.42034738318509124,0.32023945958177275,0.07361287635796243
-0.666118780711565,0.9582312855971028,1.923460278464899
-0.05078213248115701,-1.3172962412381275,3.55420427437899
-1.243156696958797,-1.015642714945901,4.395649899196804
-0.5884607868899334,1.2771716896090002,0.19687720113995777
-1.4590041046157147,-1.3906394200651722,1.5814464907221382
2.1010897108388153,-1.245639988540352,2.4371364636407655
-0.12805101256228205,-0.8068336634855017,5.5611971302285905
0.6416669129887326,-0.6544001441716599,1.1874640762826805
-1.5753136824673943,-0.298110452847356,1.6639873719655063
1.738868122303755,-0.488726331774211,5.9300781347370055
2.00201321882519,0.10429098713164375,8.479372343728182
-0.15517696394538327,2.1979447682814777,9.208254791221737
-1.1163959618267019,-1.9733971935135626,9.00492776405981
-1.6999591135652115,-0.8145201528447417,4.5269309437109655
0.1728724893448394,1.5123447294824257,3.3307334609028505
1.3920653428213097,-1.833926965843144,2.714697815776267
-1.1092138578221211,1.5678080169355662,4.242218178166488
-1.1493171622348222,-0.3820440614315879,0.6383000203341405
2.256803619230527,0.5937159097048075,0.9654671608595455
-1.7682374756918315,-0.03490032842681722,5.560195854193113
-0.22486047253974373,-0.06168589913668319,0.8929654166086043
-1.55384759054805,-0.9090228126019161,4.14627643834743
-2.057382726010106,-0.007711649965272265,7.126943608647513
0.23136371571141096,-1.540265025077511,4.033126084617943
0.9457000191522261,1.2490736037928376,9.604532049883682
-2.385093359797538,-0.3275141474705328,0.8415678651089553
-0.08030568705217098,1.425452781677208,6.941876856575334
0.5393477054972174,1.5418558318732032,7.684760748235581
-1.535951365678797,1.3648036053919932,6.68739794479877
-0.29916296131691406,1.441556823974347,8.708899568164005
1.9044992622585561,-0.9077481426937369,1.8396865515147787
0.151141029227409,-1.3317774628197678,7.820915481558824
2.103292580033084,1.0180208700487625,3.03264577466007
2.239704769720977,0.7575023122942629,4.112510889428713
0.39806777431177653,0.963926725155757,6.606275910949692
1.4643731899764756,-0.8980780576536043,9.43527693620767
0.3703364597689974,-2.2107177296152987,3.924677725979342
0.9441782274115482,1.1594232237823712,9.885250917997173
