28.24333519,-0.05602686,8.18897219,250.00000000,0.00000000,0.00000000
10.93128400,-0.20173077,8.50949718,250.00000000,0.00000000,0.00000000
7.91214755,-0.16571199,20.40685993,250.00000000,0.00000000,0.00000000
-3.67028150,-0.12768091,6.19293746,0.00000000,250.00000000,0.00000000
2.88383445,-0.10726444,-17.26660649,0.00000000,0.00000000,250.00000000
-15.95187677,-0.22267985,-18.07354713,0.00000000,250.00000000,0.00000000
-22.63227580,0.06532283,-20.37464293,0.00000000,250.00000000,0.00000000
-12.12951304,0.05799409,18.14759865,0.00000000,250.00000000,0.00000000
11.99698874,0.00562519,-13.38769130,0.00000000,0.00000000,250.00000000
-22.70577268,-0.02222215,-15.99314318,0.00000000,250.00000000,0.00000000
-24.55141164,-0.01261736,-11.26527274,0.00000000,250.00000000,0.00000000
-18.18317066,-0.11792924,5.37127685,0.00000000,250.00000000,0.00000000
-26.59095849,0.24094414,-21.63783446,0.00000000,250.00000000,0.00000000
-5.90503391,-0.13380734,-17.60199867,0.00000000,0.00000000,250.00000000
-50.01906150,0.03266400,5.94914641,0.00000000,250.00000000,0.00000000
38.59694977,-0.05866763,21.84763419,250.00000000,0.00000000,0.00000000
-8.97045400,-0.21097027,10.15687335,0.00000000,250.00000000,0.00000000
16.94977519,0.12709509,-22.32622671,0.00000000,0.00000000,250.00000000
-28.16260956,0.10871434,9.11992106,0.00000000,250.00000000,0.00000000
42.54886106,-0.05478113,16.15704672,250.00000000,0.00000000,0.00000000
-6.62278930,-0.15368249,-9.10660717,0.00000000,0.00000000,250.00000000
-14.85409630,-0.16293320,24.31516265,0.00000000,250.00000000,0.00000000
22.03328887,-0.08512354,-7.07817926,0.00000000,0.00000000,250.00000000
5.24732207,0.08235641,-3.11364604,0.00000000,0.00000000,250.00000000
25.67597251,0.03482179,30.76129832,250.00000000,0.00000000,0.00000000
-5.55794399,0.12288022,10.78703963,0.00000000,250.00000000,0.00000000
7.66857176,-0.15775274,-15.33243175,0.00000000,0.00000000,250.00000000
-2.61117547,-0.00099272,26.86540702,250.00000000,0.00000000,0.00000000
-14.42323598,0.10295801,-2.32950313,0.00000000,250.00000000,0.00000000
3.41641801,0.01379493,-2.58782233,0.00000000,0.00000000,250.00000000
3.61408985,-0.01826684,26.66503902,250.00000000,0.00000000,0.00000000
29.65899722,-0.00906249,20.85191062,250.00000000,0.00000000,0.00000000
-3.89003262,-0.06407109,26.43195919,250.00000000,0.00000000,0.00000000
12.26099893,0.03950896,38.70993501,250.00000000,0.00000000,0.00000000
-6.54750670,-0.03358623,-22.24017295,0.00000000,0.00000000,250.00000000
-3.27800304,0.05426176,8.82352782,250.00000000,0.00000000,0.00000000
25.58040084,0.05753357,-6.80958899,0.00000000,0.00000000,250.00000000
26.24607165,0.15491155,14.17694390,250.00000000,0.00000000,0.00000000
-16.69695455,0.18780275,-28.20073160,0.00000000,0.00000000,250.00000000
-19.17543458,-0.03802141,18.51017975,0.00000000,250.00000000,0.00000000
25.60647976,-0.06595274,-13.70655682,0.00000000,0.00000000,250.00000000
5.65934374,-0.19594527,14.53072036,250.00000000,0.00000000,0.00000000
25.35023609,-0.05222431,14.14073091,250.00000000,0.00000000,0.00000000
-17.51889496,-0.07616734,10.22231159,0.00000000,250.00000000,0.00000000
-20.61883744,0.04095622,0.25412210,0.00000000,250.00000000,0.00000000
12.15731434,-0.23333106,5.15201948,250.00000000,0.00000000,0.00000000
3.48490968,0.01373887,-11.92794949,0.00000000,0.00000000,250.00000000
10.19616222,0.11911385,-7.38291691,0.00000000,0.00000000,250.00000000
32.54576501,-0.12805485,4.89178665,250.00000000,0.00000000,0.00000000
-37.91151753,-0.12042127,-10.55315521,0.00000000,250.00000000,0.00000000
-7.99110250,0.02096632,21.50841390,250.00000000,0.00000000,0.00000000
-39.05233845,0.00843431,2.05441060,0.00000000,250.00000000,0.00000000
14.71809034,-0.09162401,0.33062409,250.00000000,0.00000000,0.00000000
-31.34493133,-0.03152737,-7.94432893,0.00000000,250.00000000,0.00000000
-11.46253276,-0.05836481,-3.58017641,0.00000000,250.00000000,0.00000000
5.28664532,-0.21229051,-46.94406974,0.00000000,0.00000000,250.00000000
12.01902478,-0.00749050,22.41946978,250.00000000,0.00000000,0.00000000
25.48909503,-0.02765048,14.52232391,250.00000000,0.00000000,0.00000000
2.79455531,0.04930672,-14.31824451,0.00000000,0.00000000,250.00000000
-6.75942831,0.15998001,-11.14875980,0.00000000,0.00000000,250.00000000
0.42200491,-0.02202060,15.89303445,250.00000000,0.00000000,0.00000000
-36.93821581,-0.08272732,12.39727226,0.00000000,250.00000000,0.00000000
1.90406794,-0.02706550,-42.08360668,0.00000000,0.00000000,250.00000000
-31.35701836,0.02595662,-29.11624678,0.00000000,250.00000000,0.00000000
16.92722573,0.01444211,-23.44555781,0.00000000,0.00000000,250.00000000
-0.15836433,0.17535611,1.52768365,250.00000000,0.00000000,0.00000000
-5.40389059,0.00983050,9.04904186,0.00000000,250.00000000,0.00000000
-15.81956509,0.15833328,-16.37440338,0.00000000,250.00000000,0.00000000
35.13712859,-0.11343668,17.83673073,250.00000000,0.00000000,0.00000000
-14.16726230,-0.24433232,9.77317153,0.00000000,250.00000000,0.00000000
-29.92302591,-0.06137216,39.27217556,0.00000000,250.00000000,0.00000000
-30.97471591,-0.09328862,-4.56892620,0.00000000,250.00000000,0.00000000
-5.57729818,0.13795263,-10.00990559,0.00000000,0.00000000,250.00000000
9.76069821,-0.07950454,-4.58366550,0.00000000,0.00000000,250.00000000
14.02002280,-0.12301630,-36.68348345,0.00000000,0.00000000,250.00000000
25.43776994,-0.03979972,-2.26861512,250.00000000,0.00000000,0.00000000
-12.21925494,-0.02471487,4.60068077,0.00000000,250.00000000,0.00000000
22.11146331,0.03842896,-2.00123132,250.00000000,0.00000000,0.00000000
-14.59079399,0.21862708,45.02086385,250.00000000,0.00000000,0.00000000
-14.57078095,-0.03958700,-3.33677503,0.00000000,250.00000000,0.00000000
6.48927648,0.04727331,7.11722266,250.00000000,0.00000000,0.00000000
43.99168657,-0.08042722,32.95180118,250.00000000,0.00000000,0.00000000
-18.16863824,-0.09991384,18.85977368,0.00000000,250.00000000,0.00000000
-12.56289564,-0.11254262,14.40439477,0.00000000,250.00000000,0.00000000
24.97299835,-0.22292326,55.55848900,250.00000000,0.00000000,0.00000000
-41.39451591,-0.06829450,7.70878722,0.00000000,250.00000000,0.00000000
3.51367485,-0.09832653,16.75483737,250.00000000,0.00000000,0.00000000
-23.90963806,-0.12561394,-1.46175640,0.00000000,250.00000000,0.00000000
-11.18044124,-0.06950237,-3.04860794,0.00000000,250.00000000,0.00000000
1.88943766,0.01378702,-2.53939726,0.00000000,0.00000000,250.00000000
30.17591541,-0.03535258,-13.03987907,0.00000000,0.00000000,250.00000000
-25.41293589,-0.19851414,-12.37774422,0.00000000,250.00000000,0.00000000
-26.42694982,0.10426665,5.93738788,0.00000000,250.00000000,0.00000000
-1.47184720,-0.03627734,2.00954139,0.00000000,250.00000000,0.00000000
-28.86377542,0.10447830,-6.92091003,0.00000000,250.00000000,0.00000000
3.11944993,-0.01109363,-16.26954555,0.00000000,0.00000000,250.00000000
7.87980203,0.08579310,-11.65877137,0.00000000,0.00000000,250.00000000
10.00481429,0.01649856,8.59098622,250.00000000,0.00000000,0.00000000
51.88556596,-0.03216062,-14.55796475,0.00000000,0.00000000,250.00000000
10.87186574,-0.09789150,-20.42392354,0.00000000,0.00000000,250.00000000
-9.83663652,-0.04658509,-30.01571257,0.00000000,0.00000000,250.00000000
-33.26740959,-0.02709361,26.16314200,0.00000000,250.00000000,0.00000000
-3.92791593,-0.14971616,-9.18561700,0.00000000,0.00000000,250.00000000
1.89493843,0.15784242,-4.86475599,0.00000000,0.00000000,250.00000000
-30.50900372,0.08204874,16.36932217,0.00000000,250.00000000,0.00000000
-8.83122446,-0.06983103,13.43871727,0.00000000,250.00000000,0.00000000
2.12372335,0.07903231,14.91586352,250.00000000,0.00000000,0.00000000
-23.98425432,-0.12466528,-17.65648193,0.00000000,250.00000000,0.00000000
9.01718519,-0.05685115,-0.39980635,250.00000000,0.00000000,0.00000000
34.21735977,-0.20749260,17.75813584,250.00000000,0.00000000,0.00000000
15.57562666,-0.06514248,-7.09218310,0.00000000,0.00000000,250.00000000
2.30770273,-0.08650159,-7.41516919,0.00000000,0.00000000,250.00000000
-33.50130620,-0.12390129,-19.49006964,0.00000000,250.00000000,0.00000000
-13.93449428,-0.04011057,-52.55483711,0.00000000,0.00000000,250.00000000
-29.86022288,0.06360169,-12.01665148,0.00000000,250.00000000,0.00000000
39.67248379,0.13323813,-25.17290245,0.00000000,0.00000000,250.00000000
39.62882865,-0.19085426,33.17203674,250.00000000,0.00000000,0.00000000
-12.23087646,-0.16402844,-14.93235949,0.00000000,0.00000000,250.00000000
-55.57686832,-0.04258439,15.19102531,0.00000000,250.00000000,0.00000000
-17.90737925,-0.07238884,7.77609262,0.00000000,250.00000000,0.00000000
13.26211537,-0.06847206,-23.14507659,0.00000000,0.00000000,250.00000000
-14.25063567,0.05772234,2.14752706,0.00000000,250.00000000,0.00000000
4.76870208,-0.04549008,-31.02148122,0.00000000,0.00000000,250.00000000
-15.25653679,0.05413625,16.99170553,0.00000000,250.00000000,0.00000000
-23.71038300,-0.14438527,23.95827053,0.00000000,250.00000000,0.00000000
-22.68669200,0.02629063,51.27949623,0.00000000,250.00000000,0.00000000
-3.44908933,0.04632951,9.11408573,250.00000000,0.00000000,0.00000000
-3.03254994,0.08568602,-31.09669210,0.00000000,0.00000000,250.00000000
-20.28034712,-0.02691738,1.91867991,0.00000000,250.00000000,0.00000000
-25.31714631,0.09002973,49.08420441,0.00000000,250.00000000,0.00000000
3.73715520,0.02497380,-11.49383382,0.00000000,0.00000000,250.00000000
46.76437559,-0.12533725,-9.58995025,0.00000000,0.00000000,250.00000000
-21.51417820,0.12273239,26.77916372,0.00000000,250.00000000,0.00000000
-7.69284872,0.21902757,13.83684933,0.00000000,250.00000000,0.00000000
-3.79861739,-0.01642290,17.16574390,250.00000000,0.00000000,0.00000000
-11.07517547,-0.12553635,49.22113955,250.00000000,0.00000000,0.00000000
18.35257207,0.05447087,-26.00729437,0.00000000,0.00000000,250.00000000
-5.56601624,0.11181765,-35.74382170,0.00000000,0.00000000,250.00000000
-14.37964845,0.00619986,16.33130987,0.00000000,250.00000000,0.00000000
-7.13777847,-0.06964339,-4.95712437,0.00000000,250.00000000,0.00000000
-44.41465147,0.02042963,12.11577158,0.00000000,250.00000000,0.00000000
-18.50146443,-0.16400698,0.38712231,0.00000000,250.00000000,0.00000000
16.60134160,0.06765823,-20.99220302,0.00000000,0.00000000,250.00000000
4.56907720,-0.09551601,-1.01652988,0.00000000,0.00000000,250.00000000
15.03755783,-0.01526846,10.14457588,250.00000000,0.00000000,0.00000000
17.74359549,-0.08665753,-33.88068531,0.00000000,0.00000000,250.00000000
18.53335154,-0.04552586,-3.52801464,0.00000000,0.00000000,250.00000000
-34.26582362,0.09548575,2.78713981,0.00000000,250.00000000,0.00000000
-5.78185687,0.02994088,8.17714429,0.00000000,250.00000000,0.00000000
9.16236018,0.03157191,21.03030796,250.00000000,0.00000000,0.00000000
6.89835570,0.07152966,27.00460232,250.00000000,0.00000000,0.00000000
-11.99767942,0.09902187,39.18898082,250.00000000,0.00000000,0.00000000
-29.21386203,-0.01946107,5.42048903,0.00000000,250.00000000,0.00000000
23.28366903,-0.02047698,0.58042156,250.00000000,0.00000000,0.00000000
19.65057284,0.08437857,-7.87581283,0.00000000,0.00000000,250.00000000
-10.79456027,-0.12245576,-2.62304460,0.00000000,250.00000000,0.00000000
5.35646942,0.19474642,-23.19493386,0.00000000,0.00000000,250.00000000
-15.65299397,-0.08598921,-33.57726588,0.00000000,0.00000000,250.00000000
22.03710566,0.08054817,-14.23658091,0.00000000,0.00000000,250.00000000
26.71521108,0.02049909,15.57759070,250.00000000,0.00000000,0.00000000
-19.65411906,0.00556455,-36.65963610,0.00000000,0.00000000,250.00000000
31.36331068,0.00205744,-2.08387250,250.00000000,0.00000000,0.00000000
3.97300694,-0.10068958,22.37030738,250.00000000,0.00000000,0.00000000
6.39311124,0.06078219,3.51337778,250.00000000,0.00000000,0.00000000
-3.56139935,-0.16607160,-1.79017131,0.00000000,250.00000000,0.00000000
-28.65889217,-0.01504693,27.08373312,0.00000000,250.00000000,0.00000000
17.61429003,0.01356378,11.45617575,250.00000000,0.00000000,0.00000000
-0.85730022,-0.17970709,-0.23321544,0.00000000,250.00000000,0.00000000
-25.27256041,0.02605958,-38.09929633,0.00000000,0.00000000,250.00000000
-8.00216000,0.08374433,26.80729494,250.00000000,0.00000000,0.00000000
15.31388751,0.11485905,-7.83238928,0.00000000,0.00000000,250.00000000
14.65152292,-0.03505468,-17.63452322,0.00000000,0.00000000,250.00000000
7.61714362,-0.02050077,19.92592511,250.00000000,0.00000000,0.00000000
-6.24548125,-0.12399279,-25.47012032,0.00000000,0.00000000,250.00000000
1.72143337,0.05687940,-10.44446097,0.00000000,0.00000000,250.00000000
50.96020616,0.06772500,-16.42177760,0.00000000,0.00000000,250.00000000
23.18769567,-0.03171081,5.83326316,250.00000000,0.00000000,0.00000000
-23.73779483,0.03590178,15.95540331,0.00000000,250.00000000,0.00000000
-7.44971395,-0.06815398,31.30280954,250.00000000,0.00000000,0.00000000
0.12565485,0.08679434,-9.38489885,0.00000000,0.00000000,250.00000000
26.88332991,0.07649299,2.88349373,250.00000000,0.00000000,0.00000000
24.15298134,0.01195185,-9.17092688,0.00000000,0.00000000,250.00000000
9.30583930,0.06847632,10.38533088,250.00000000,0.00000000,0.00000000
-12.41957891,0.04476266,-12.69894466,0.00000000,250.00000000,0.00000000
-9.12725704,-0.00978175,-28.57787157,0.00000000,0.00000000,250.00000000
3.02788065,-0.01018911,-25.32223380,0.00000000,0.00000000,250.00000000
10.11851333,0.07679036,-25.06928118,0.00000000,0.00000000,250.00000000
-23.27667823,-0.19999239,13.91125378,0.00000000,250.00000000,0.00000000
-28.03524045,-0.07751452,18.99383523,0.00000000,250.00000000,0.00000000
-30.93881084,-0.09353343,-28.96662599,0.00000000,250.00000000,0.00000000
-7.66486528,-0.02638795,-25.91747046,0.00000000,0.00000000,250.00000000
18.38769628,-0.12978856,13.28463430,250.00000000,0.00000000,0.00000000
-18.88902214,0.13272923,20.52179535,0.00000000,250.00000000,0.00000000
10.72552472,-0.02002153,-41.17543771,0.00000000,0.00000000,250.00000000
-42.10433725,-0.01950601,11.38752184,0.00000000,250.00000000,0.00000000
12.52460309,-0.10231032,1.39834494,250.00000000,0.00000000,0.00000000
-0.13099048,0.06200537,8.43514317,250.00000000,0.00000000,0.00000000
1.98847889,-0.03024191,6.76409173,250.00000000,0.00000000,0.00000000
-2.32148941,0.07937694,-42.74374061,0.00000000,0.00000000,250.00000000
-9.27407308,0.03116134,12.14256072,0.00000000,250.00000000,0.00000000
-3.26009534,-0.11239168,18.88713903,250.00000000,0.00000000,0.00000000
-17.84137774,-0.16127724,-0.78778112,0.00000000,250.00000000,0.00000000
-20.70737896,0.04752458,8.05108127,0.00000000,250.00000000,0.00000000
20.05503892,0.07325456,0.51905040,250.00000000,0.00000000,0.00000000
-11.49064792,-0.26803895,-1.77407550,0.00000000,250.00000000,0.00000000
37.53011381,0.13361487,4.67090640,250.00000000,0.00000000,0.00000000
8.85489958,0.06430274,13.27535779,250.00000000,0.00000000,0.00000000
-33.81146146,-0.11779806,-2.84652000,0.00000000,250.00000000,0.00000000
12.36797280,0.07638098,-24.75564438,0.00000000,0.00000000,250.00000000
-47.09005318,0.10518302,-6.52037265,0.00000000,250.00000000,0.00000000
14.09449695,0.09400371,-7.14685580,0.00000000,0.00000000,250.00000000
-10.77644407,0.09129087,21.19551422,0.00000000,250.00000000,0.00000000
-10.79250408,-0.14262368,-4.08854823,0.00000000,250.00000000,0.00000000
-7.84871016,-0.02450973,-9.09641715,0.00000000,0.00000000,250.00000000
20.59061896,0.03884987,16.26370076,250.00000000,0.00000000,0.00000000
5.47667989,0.06295976,-4.18805658,0.00000000,0.00000000,250.00000000
1.99661476,-0.04834731,6.67586556,250.00000000,0.00000000,0.00000000
26.45183156,0.07938274,-16.07982434,0.00000000,0.00000000,250.00000000
20.46553847,-0.05962988,21.30640167,250.00000000,0.00000000,0.00000000
1.73167793,-0.07917422,-20.11657833,0.00000000,0.00000000,250.00000000
12.67793219,-0.06996422,-26.75989671,0.00000000,0.00000000,250.00000000
0.78835132,-0.09740679,15.81337640,250.00000000,0.00000000,0.00000000
-3.71287142,0.15611366,-34.71429889,0.00000000,0.00000000,250.00000000
17.59514149,0.03692082,-1.72214934,250.00000000,0.00000000,0.00000000
15.99770020,0.02881069,41.71096617,250.00000000,0.00000000,0.00000000
-20.84437736,0.12828949,15.85429401,0.00000000,250.00000000,0.00000000
8.70529727,-0.08619604,-25.31506588,0.00000000,0.00000000,250.00000000
6.28557798,0.07478876,-23.57700786,0.00000000,0.00000000,250.00000000
-18.32186521,0.15106416,39.94799846,0.00000000,250.00000000,0.00000000
-28.41953997,-0.11192886,-24.14933435,0.00000000,250.00000000,0.00000000
-15.44039040,-0.06218010,8.22648124,0.00000000,250.00000000,0.00000000
7.13427058,-0.04951882,37.29989318,250.00000000,0.00000000,0.00000000
-3.20165047,0.00713693,6.72371636,0.00000000,250.00000000,0.00000000
-24.62298452,-0.07368286,4.95990837,0.00000000,250.00000000,0.00000000
0.92965520,0.02175674,-7.55454613,0.00000000,0.00000000,250.00000000
-20.82053883,0.03004203,-25.47276924,0.00000000,0.00000000,250.00000000
-11.17846380,-0.10717325,13.03337480,0.00000000,250.00000000,0.00000000
-21.87929282,-0.16848452,-0.90782638,0.00000000,250.00000000,0.00000000
5.77745610,0.02467593,19.30049042,250.00000000,0.00000000,0.00000000
-1.64674812,0.09970993,-8.16362917,0.00000000,0.00000000,250.00000000
22.24623416,0.01944077,19.88250661,250.00000000,0.00000000,0.00000000
-12.33524546,-0.16365661,15.29368706,0.00000000,250.00000000,0.00000000
-26.52607090,-0.08789528,-8.87134503,0.00000000,250.00000000,0.00000000
7.45097419,-0.01835729,-18.87912551,0.00000000,0.00000000,250.00000000
8.41166050,0.08842107,-21.05694754,0.00000000,0.00000000,250.00000000
8.59843823,0.10024041,2.09121542,250.00000000,0.00000000,0.00000000
-40.89804939,0.04204297,-16.84167915,0.00000000,250.00000000,0.00000000
22.98480516,-0.13732978,-20.78826971,0.00000000,0.00000000,250.00000000
1.49521160,-0.05657102,30.04216363,250.00000000,0.00000000,0.00000000
37.50526118,-0.03712489,22.30252009,250.00000000,0.00000000,0.00000000
20.09415019,0.09176523,8.93413343,250.00000000,0.00000000,0.00000000
-32.86206053,0.13377639,-15.17233340,0.00000000,250.00000000,0.00000000
-32.78584688,0.11563327,-34.69525167,0.00000000,250.00000000,0.00000000
4.98417471,0.04455314,21.82728625,250.00000000,0.00000000,0.00000000
-6.19428659,0.19038967,44.65208103,250.00000000,0.00000000,0.00000000
3.35912224,0.06222032,12.31034990,250.00000000,0.00000000,0.00000000
-3.75843525,-0.02494548,-7.69075910,0.00000000,0.00000000,250.00000000
-4.12002968,0.13681053,22.35368722,250.00000000,0.00000000,0.00000000
-46.04486485,0.00508255,-13.99471171,0.00000000,250.00000000,0.00000000
-19.04807284,0.05042960,16.76799651,0.00000000,250.00000000,0.00000000
-18.08322984,-0.05379496,-5.25290643,0.00000000,250.00000000,0.00000000
19.77370631,0.20527284,-13.17430981,0.00000000,0.00000000,250.00000000
0.73745292,0.08535204,5.39968748,250.00000000,0.00000000,0.00000000
6.44670491,0.08542725,8.97607318,250.00000000,0.00000000,0.00000000
-13.41557429,0.12129109,-1.25422303,0.00000000,250.00000000,0.00000000
33.55813623,-0.08998969,-9.96692160,0.00000000,0.00000000,250.00000000
41.50449972,-0.01989678,-13.99686086,0.00000000,0.00000000,250.00000000
15.33659830,-0.07715933,-16.63047721,0.00000000,0.00000000,250.00000000
29.67542812,-0.19461054,7.81212718,250.00000000,0.00000000,0.00000000
-19.09661443,0.13424543,-0.29505678,0.00000000,250.00000000,0.00000000
8.56620712,-0.02180926,7.03003303,250.00000000,0.00000000,0.00000000
-27.67309564,-0.03399776,-0.45468338,0.00000000,250.00000000,0.00000000
26.08118575,0.01856331,-18.31239614,0.00000000,0.00000000,250.00000000
6.33563558,-0.30559996,-3.80637488,0.00000000,0.00000000,250.00000000
20.83545626,0.15258647,-13.28943126,0.00000000,0.00000000,250.00000000
-16.96650352,-0.04954270,-19.80471002,0.00000000,250.00000000,0.00000000
29.32078955,-0.10523772,28.69372508,250.00000000,0.00000000,0.00000000
0.73656330,0.02177728,0.54053023,250.00000000,0.00000000,0.00000000
23.73997025,-0.07768261,-16.85163562,0.00000000,0.00000000,250.00000000
-2.40846942,0.05579788,9.33035798,250.00000000,0.00000000,0.00000000
-14.96119788,0.00491248,-3.08285599,0.00000000,250.00000000,0.00000000
-28.87338757,0.14175132,30.81684772,0.00000000,250.00000000,0.00000000
-12.31014722,-0.00990440,3.51456006,0.00000000,250.00000000,0.00000000
-16.48500416,-0.21152491,17.53438938,0.00000000,250.00000000,0.00000000
-2.72218335,0.00067683,-17.35975559,0.00000000,0.00000000,250.00000000
13.04381540,-0.06400265,46.76420409,250.00000000,0.00000000,0.00000000
16.87950656,0.02906801,2.25023955,250.00000000,0.00000000,0.00000000
-28.46743507,0.10371113,3.84233317,0.00000000,250.00000000,0.00000000
-29.75576331,0.01014592,10.18696268,0.00000000,250.00000000,0.00000000
-19.27493376,0.06520944,-11.72349294,0.00000000,250.00000000,0.00000000
-49.54944917,-0.00410956,27.28732124,0.00000000,250.00000000,0.00000000
-29.99517019,-0.09916593,-4.67310102,0.00000000,250.00000000,0.00000000
-34.38545135,-0.12375220,-2.96477862,0.00000000,250.00000000,0.00000000
17.39978092,0.00679060,4.36670065,250.00000000,0.00000000,0.00000000
1.26671499,-0.13109395,-14.76713936,0.00000000,0.00000000,250.00000000
19.43284473,0.04907892,-1.54193162,250.00000000,0.00000000,0.00000000
-45.77079593,-0.15446609,33.02976909,0.00000000,250.00000000,0.00000000
-19.95881301,-0.01232546,34.96292280,0.00000000,250.00000000,0.00000000
19.72069254,-0.14243450,-2.84036907,250.00000000,0.00000000,0.00000000
6.15494976,-0.08385350,-19.37724339,0.00000000,0.00000000,250.00000000
-4.69974139,-0.02346599,4.48405143,0.00000000,250.00000000,0.00000000
17.12730791,0.07098077,20.42845621,250.00000000,0.00000000,0.00000000
-17.39433401,0.07382209,-20.93154869,0.00000000,0.00000000,250.00000000
-13.59960939,-0.04891236,8.56835189,0.00000000,250.00000000,0.00000000
-14.17809450,0.06595784,13.50249745,0.00000000,250.00000000,0.00000000
-42.53126546,0.01631318,-5.69120760,0.00000000,250.00000000,0.00000000
-7.59875144,-0.18622810,-45.03736277,0.00000000,0.00000000,250.00000000
8.05884078,0.00355218,12.28265901,250.00000000,0.00000000,0.00000000
32.76353628,0.10031006,0.44277593,250.00000000,0.00000000,0.00000000
-6.11723371,0.19453592,-25.74592966,0.00000000,0.00000000,250.00000000
5.51975626,0.10352381,48.16229703,250.00000000,0.00000000,0.00000000
18.40835423,-0.10548341,23.61995240,250.00000000,0.00000000,0.00000000
20.80147052,0.02430477,-5.31604086,0.00000000,0.00000000,250.00000000
-2.04917330,-0.07391173,12.09744929,250.00000000,0.00000000,0.00000000
39.29443874,-0.21375366,-3.14524455,250.00000000,0.00000000,0.00000000
27.11722366,0.17111487,-33.76977158,0.00000000,0.00000000,250.00000000
7.24815831,0.01648356,14.41937875,250.00000000,0.00000000,0.00000000
-37.73106692,0.01082245,12.74762947,0.00000000,250.00000000,0.00000000
25.77200924,0.08969278,11.49252082,250.00000000,0.00000000,0.00000000
5.75361029,-0.04587262,19.45122619,250.00000000,0.00000000,0.00000000
7.32863232,0.05998458,-17.98320355,0.00000000,0.00000000,250.00000000
-20.51769180,-0.07119329,17.70204995,0.00000000,250.00000000,0.00000000
1.59827400,-0.06451324,23.43072291,250.00000000,0.00000000,0.00000000
-0.20441046,0.11835991,27.85044946,250.00000000,0.00000000,0.00000000
-0.15211562,0.21919603,-23.34412671,0.00000000,0.00000000,250.00000000
33.57931679,-0.04984551,-26.90367494,0.00000000,0.00000000,250.00000000
-13.05289548,-0.04457036,5.28376155,0.00000000,250.00000000,0.00000000
-11.30252945,-0.06984971,-24.82045683,0.00000000,0.00000000,250.00000000
3.26993470,-0.04314896,-7.20745152,0.00000000,0.00000000,250.00000000
-18.48244749,-0.04392325,-3.98434638,0.00000000,250.00000000,0.00000000
-5.55092031,-0.02971847,9.71421875,0.00000000,250.00000000,0.00000000
-6.50736899,0.01796374,-11.16723078,0.00000000,0.00000000,250.00000000
-32.15305181,0.00289010,7.19138406,0.00000000,250.00000000,0.00000000
-46.01438448,-0.06197884,-1.75091090,0.00000000,250.00000000,0.00000000
9.13165459,0.00938694,27.47970861,250.00000000,0.00000000,0.00000000
-8.36814979,0.09303921,-3.26673184,0.00000000,250.00000000,0.00000000
1.91206184,-0.02304598,-7.44824727,0.00000000,0.00000000,250.00000000
26.56071630,0.01257122,-22.92965510,0.00000000,0.00000000,250.00000000
-3.15076914,-0.19698571,-13.62177261,0.00000000,0.00000000,250.00000000
-13.83443201,0.05823254,-22.08078914,0.00000000,0.00000000,250.00000000
13.20134306,0.11471347,-4.29022099,0.00000000,0.00000000,250.00000000
13.86643869,-0.04708725,-6.52447422,0.00000000,0.00000000,250.00000000
-12.14614581,-0.01826564,22.26793414,0.00000000,250.00000000,0.00000000
-9.89360751,-0.02309516,-4.08953068,0.00000000,250.00000000,0.00000000
-8.95386379,-0.17607523,-12.62341189,0.00000000,0.00000000,250.00000000
14.34871874,0.05142617,11.73225424,250.00000000,0.00000000,0.00000000
19.38206606,-0.08396033,15.61365570,250.00000000,0.00000000,0.00000000
-24.73784833,-0.08113125,4.97516096,0.00000000,250.00000000,0.00000000
8.60802170,0.00085980,58.27062203,250.00000000,0.00000000,0.00000000
8.58294705,0.15448589,-4.62458206,0.00000000,0.00000000,250.00000000
-32.46649898,-0.02685440,20.69558682,0.00000000,250.00000000,0.00000000
-45.29838008,-0.06910331,43.50718136,0.00000000,250.00000000,0.00000000
-2.45566164,0.10193355,28.98724154,250.00000000,0.00000000,0.00000000
13.95625607,0.10157926,-3.40342426,0.00000000,0.00000000,250.00000000
4.34836790,-0.17716625,22.34616629,250.00000000,0.00000000,0.00000000
-24.19459600,0.14905758,9.01297000,0.00000000,250.00000000,0.00000000
6.29311710,-0.12144296,-14.22919136,0.00000000,0.00000000,250.00000000
-2.89424574,-0.18177836,-5.31345829,0.00000000,0.00000000,250.00000000
16.89074972,0.01706840,-10.03131972,0.00000000,0.00000000,250.00000000
25.93141217,-0.08570823,39.78646016,250.00000000,0.00000000,0.00000000
-5.61866448,0.03602704,17.83896350,250.00000000,0.00000000,0.00000000
22.86857275,-0.08327482,30.33774495,250.00000000,0.00000000,0.00000000
-30.35368377,-0.07719784,15.38733890,0.00000000,250.00000000,0.00000000
5.55890343,0.13868269,-10.05043744,0.00000000,0.00000000,250.00000000
5.82936107,-0.08129716,-26.95013368,0.00000000,0.00000000,250.00000000
-4.41381709,-0.18662089,12.97337375,250.00000000,0.00000000,0.00000000
-24.00920328,-0.01948188,-39.20695147,0.00000000,0.00000000,250.00000000
11.28477481,0.07334300,-38.36985581,0.00000000,0.00000000,250.00000000
58.21225654,-0.00364943,2.34143241,250.00000000,0.00000000,0.00000000
-26.08802015,-0.02307559,31.82577260,0.00000000,250.00000000,0.00000000
-3.98959753,-0.05122429,0.72798457,0.00000000,250.00000000,0.00000000
8.26819636,-0.11286391,25.21658344,250.00000000,0.00000000,0.00000000
21.01308378,0.06955644,4.99738119,250.00000000,0.00000000,0.00000000
34.32956911,-0.20776670,-12.71567758,0.00000000,0.00000000,250.00000000
34.92535811,-0.03669505,2.10717503,250.00000000,0.00000000,0.00000000
34.88642600,-0.18788963,-49.38549142,0.00000000,0.00000000,250.00000000
20.80899280,-0.03112926,16.99406903,250.00000000,0.00000000,0.00000000
-3.81248290,-0.08280327,-9.00614830,0.00000000,0.00000000,250.00000000
25.78786965,-0.13913243,16.78397213,250.00000000,0.00000000,0.00000000
-26.50431776,-0.04588499,37.84877470,0.00000000,250.00000000,0.00000000
-0.54669627,-0.07975640,31.86087192,250.00000000,0.00000000,0.00000000
2.84198271,0.14868879,11.44591951,250.00000000,0.00000000,0.00000000
-22.24620876,-0.08398606,18.73611116,0.00000000,250.00000000,0.00000000
-23.61437880,-0.02535488,-27.42603019,0.00000000,250.00000000,0.00000000
10.63049917,-0.04974703,32.69971593,250.00000000,0.00000000,0.00000000
-25.57801015,-0.00981841,-20.83203454,0.00000000,250.00000000,0.00000000
5.56114652,0.08158487,-6.41759344,0.00000000,0.00000000,250.00000000
-6.04790108,-0.14409919,15.91897173,250.00000000,0.00000000,0.00000000
11.24735773,0.05662542,22.24563578,250.00000000,0.00000000,0.00000000
40.66426303,0.08462754,-0.97425093,250.00000000,0.00000000,0.00000000
-21.35057361,-0.13470857,23.55963012,0.00000000,250.00000000,0.00000000
-11.92404582,0.00228666,-9.71889112,0.00000000,250.00000000,0.00000000
14.25377904,-0.04975970,-11.42638886,0.00000000,0.00000000,250.00000000
39.61996543,-0.01563678,27.43141151,250.00000000,0.00000000,0.00000000
0.42481686,-0.02349456,-9.77937716,0.00000000,0.00000000,250.00000000
9.64517062,0.15276792,6.27766660,250.00000000,0.00000000,0.00000000
-12.89827172,-0.01008693,30.29787828,0.00000000,250.00000000,0.00000000
2.07891872,0.05324154,-10.79528749,0.00000000,0.00000000,250.00000000
4.73683301,0.03551787,33.30418605,250.00000000,0.00000000,0.00000000
1.43541541,0.18930631,-0.11941043,250.00000000,0.00000000,0.00000000
-9.07561830,-0.14749315,-1.03123097,0.00000000,250.00000000,0.00000000
-9.51459195,0.10903146,-14.55477249,0.00000000,0.00000000,250.00000000
18.04722184,0.04162232,17.08120674,250.00000000,0.00000000,0.00000000
-11.27805040,0.12850672,35.80674179,250.00000000,0.00000000,0.00000000
9.95677185,-0.04207167,30.09151957,250.00000000,0.00000000,0.00000000
-1.81508658,0.01437496,-10.59642188,0.00000000,0.00000000,250.00000000
31.41184417,0.02204145,19.01666577,250.00000000,0.00000000,0.00000000
-1.90361356,0.04403053,32.60846528,250.00000000,0.00000000,0.00000000
27.16990985,-0.01602559,7.41300846,250.00000000,0.00000000,0.00000000
9.56993073,-0.04863615,34.96488926,250.00000000,0.00000000,0.00000000
-10.80311948,0.15979979,-21.52462128,0.00000000,0.00000000,250.00000000
-18.10796639,0.01599709,33.06431944,0.00000000,250.00000000,0.00000000
-38.83531387,-0.09398935,18.45314501,0.00000000,250.00000000,0.00000000
-21.69153654,-0.13564871,-3.90696886,0.00000000,250.00000000,0.00000000
-12.38351866,-0.06411905,7.83999010,0.00000000,250.00000000,0.00000000
-47.36215469,0.06473941,23.61770359,0.00000000,250.00000000,0.00000000
26.73292880,-0.14235513,-48.08334041,0.00000000,0.00000000,250.00000000
-13.52250776,0.01980379,-3.65265189,0.00000000,250.00000000,0.00000000
-4.90270885,-0.14317633,20.05197455,250.00000000,0.00000000,0.00000000
-12.76853567,-0.13086609,-0.18027257,0.00000000,250.00000000,0.00000000
-34.52143165,-0.04047430,19.59240672,0.00000000,250.00000000,0.00000000
9.65381299,0.16651264,11.44848320,250.00000000,0.00000000,0.00000000
8.36781098,0.08082240,-25.45666805,0.00000000,0.00000000,250.00000000
7.30403122,-0.00511905,-14.80581994,0.00000000,0.00000000,250.00000000
4.75135996,-0.05979046,-11.31399707,0.00000000,0.00000000,250.00000000
-20.83790867,0.00745952,-4.01871194,0.00000000,250.00000000,0.00000000
-3.65230103,0.05835001,18.69082070,250.00000000,0.00000000,0.00000000
4.20817851,0.00282061,8.48012773,250.00000000,0.00000000,0.00000000
2.45738460,0.13304566,27.67161959,250.00000000,0.00000000,0.00000000
-26.40512247,-0.00990793,-11.26226577,0.00000000,250.00000000,0.00000000
25.14543181,0.11627559,39.67687417,250.00000000,0.00000000,0.00000000
-13.47135253,0.15816572,-8.03521340,0.00000000,250.00000000,0.00000000
-10.38429326,0.18254290,-7.05121490,0.00000000,250.00000000,0.00000000
-3.65154456,0.00764704,-9.01657563,0.00000000,0.00000000,250.00000000
41.19753352,0.04176931,13.72905782,250.00000000,0.00000000,0.00000000
-3.37034985,-0.06679105,-26.42030136,0.00000000,0.00000000,250.00000000
8.22999015,0.03412026,-17.99487590,0.00000000,0.00000000,250.00000000
-9.45565514,0.01793818,7.35238808,0.00000000,250.00000000,0.00000000
-8.25798017,0.09264132,-7.69103016,0.00000000,250.00000000,0.00000000
7.20269498,0.11171143,-27.54968741,0.00000000,0.00000000,250.00000000
-28.63737657,0.02568546,-6.23991887,0.00000000,250.00000000,0.00000000
19.89362227,0.03291155,-7.87283231,0.00000000,0.00000000,250.00000000
-14.11533063,0.04589015,14.23235145,0.00000000,250.00000000,0.00000000
0.12387288,-0.02062572,-18.68983848,0.00000000,0.00000000,250.00000000
26.23096527,-0.02123356,-22.96110748,0.00000000,0.00000000,250.00000000
6.27364195,0.01317413,-16.44172835,0.00000000,0.00000000,250.00000000
-6.79883544,-0.00510966,-9.54095403,0.00000000,0.00000000,250.00000000
-15.77006758,0.12660316,-4.17758310,0.00000000,250.00000000,0.00000000
13.48846430,-0.06797867,-23.79343859,0.00000000,0.00000000,250.00000000
9.70765278,-0.01994856,16.46366615,250.00000000,0.00000000,0.00000000
2.08263231,0.21958238,6.75806480,250.00000000,0.00000000,0.00000000
2.98665281,-0.02533139,-9.34401632,0.00000000,0.00000000,250.00000000
-30.55113847,0.04416909,5.94045203,0.00000000,250.00000000,0.00000000
37.16901986,0.00437748,-23.11516891,0.00000000,0.00000000,250.00000000
14.91210822,-0.04467784,-3.87623245,0.00000000,0.00000000,250.00000000
-19.38128999,-0.00408994,-5.15612327,0.00000000,250.00000000,0.00000000
21.48911674,-0.01418962,4.26460884,250.00000000,0.00000000,0.00000000
50.24825858,-0.03949606,0.00828532,250.00000000,0.00000000,0.00000000
1.36395264,0.03935771,6.67653574,250.00000000,0.00000000,0.00000000
-34.21643300,-0.20474516,-19.81202034,0.00000000,250.00000000,0.00000000
4.81356761,0.04501532,-13.37556612,0.00000000,0.00000000,250.00000000
13.69803589,0.10160895,40.34694054,250.00000000,0.00000000,0.00000000
-18.90715547,-0.01363703,2.51529866,0.00000000,250.00000000,0.00000000
-32.16352109,0.18346140,-9.55762081,0.00000000,250.00000000,0.00000000
-23.12721587,-0.00789910,-36.50064349,0.00000000,0.00000000,250.00000000
-23.23022582,-0.08912977,34.00555444,0.00000000,250.00000000,0.00000000
-0.49120100,0.07310548,13.69749961,250.00000000,0.00000000,0.00000000
-2.08023232,0.06679450,-11.08561782,0.00000000,0.00000000,250.00000000
-18.60049025,0.00099399,16.84716837,0.00000000,250.00000000,0.00000000
-23.82256282,0.06672129,13.94327862,0.00000000,250.00000000,0.00000000
-9.36781127,-0.04586548,13.40207206,0.00000000,250.00000000,0.00000000
4.10931499,0.06458321,8.22893686,250.00000000,0.00000000,0.00000000
12.10822097,0.04084948,-11.09996444,0.00000000,0.00000000,250.00000000
-4.83516361,0.06712592,-42.14250651,0.00000000,0.00000000,250.00000000
9.14672516,-0.15478100,-1.94693590,0.00000000,0.00000000,250.00000000
15.49270845,0.00114010,30.09231879,250.00000000,0.00000000,0.00000000
-15.12708495,-0.10591656,-40.53004472,0.00000000,0.00000000,250.00000000
-6.92980476,0.06778415,-33.58731770,0.00000000,0.00000000,250.00000000
35.07606124,-0.05064480,5.79590988,250.00000000,0.00000000,0.00000000
-34.14577476,0.14302613,-0.33967126,0.00000000,250.00000000,0.00000000
-10.71204182,0.00272468,-20.18043132,0.00000000,0.00000000,250.00000000
-8.05889667,0.03734793,-16.15777667,0.00000000,0.00000000,250.00000000
20.00796796,-0.10660692,6.03423133,250.00000000,0.00000000,0.00000000
-16.68897217,-0.00864321,-3.49133326,0.00000000,250.00000000,0.00000000
-9.99966157,-0.06058491,40.81454995,250.00000000,0.00000000,0.00000000
-2.76027646,0.08656371,21.29487435,250.00000000,0.00000000,0.00000000
-56.81206130,0.06297837,39.05152402,0.00000000,250.00000000,0.00000000
-2.02620948,0.13914474,-20.13433603,0.00000000,0.00000000,250.00000000
-2.93064403,0.15377904,17.39852391,250.00000000,0.00000000,0.00000000
2.93921378,0.05392392,-24.80407271,0.00000000,0.00000000,250.00000000
-7.81196588,-0.11741995,-18.13636453,0.00000000,0.00000000,250.00000000
-28.22104514,0.04813677,-17.64452437,0.00000000,250.00000000,0.00000000
-12.77394384,-0.05994069,-28.05023912,0.00000000,0.00000000,250.00000000
-11.52947882,0.04877656,-14.26345282,0.00000000,0.00000000,250.00000000
-10.28234836,0.03152690,3.14173349,0.00000000,250.00000000,0.00000000
-26.65342424,-0.05039028,9.14382034,0.00000000,250.00000000,0.00000000
-8.99671976,-0.18753761,40.07360841,250.00000000,0.00000000,0.00000000
-32.02714513,0.02422387,19.07476874,0.00000000,250.00000000,0.00000000
4.72337744,0.01457792,19.35125755,250.00000000,0.00000000,0.00000000
-3.60083682,-0.13207326,-30.58345797,0.00000000,0.00000000,250.00000000
3.12583916,0.03046753,-9.69484560,0.00000000,0.00000000,250.00000000
-21.70975769,-0.04222645,-10.85128593,0.00000000,250.00000000,0.00000000
-7.79193045,0.11979007,-24.23996133,0.00000000,0.00000000,250.00000000
14.95924700,0.04995294,7.11503454,250.00000000,0.00000000,0.00000000
30.99784408,-0.08597413,-11.82285603,0.00000000,0.00000000,250.00000000
-0.39198066,0.10354842,8.61839234,250.00000000,0.00000000,0.00000000
-3.91074447,-0.21874615,43.12855154,250.00000000,0.00000000,0.00000000
28.63038867,-0.01896307,25.05342813,250.00000000,0.00000000,0.00000000
6.18912659,0.00372511,-20.29673079,0.00000000,0.00000000,250.00000000
11.45442704,-0.12510896,14.80337930,250.00000000,0.00000000,0.00000000
1.29459173,0.05067260,23.98880264,250.00000000,0.00000000,0.00000000
7.31684892,-0.15097355,-35.70928198,0.00000000,0.00000000,250.00000000
-38.09141779,-0.17649798,35.40491132,0.00000000,250.00000000,0.00000000
-12.88162231,-0.01789303,6.47323568,0.00000000,250.00000000,0.00000000
24.02738117,-0.00125855,9.00889127,250.00000000,0.00000000,0.00000000
-7.59447016,0.03484297,37.44988392,250.00000000,0.00000000,0.00000000
5.49963488,-0.01029889,25.07910792,250.00000000,0.00000000,0.00000000
-8.26007043,-0.07561108,8.04419318,0.00000000,250.00000000,0.00000000
16.89204627,0.17758913,-6.13227271,0.00000000,0.00000000,250.00000000
-20.25923421,-0.19101494,-7.53617127,0.00000000,250.00000000,0.00000000
3.84174626,-0.20070661,-4.96158347,0.00000000,0.00000000,250.00000000
16.04914865,0.13782464,1.13234961,250.00000000,0.00000000,0.00000000
5.45095882,-0.08766846,-37.40532378,0.00000000,0.00000000,250.00000000
3.78670636,0.06096136,6.36419715,250.00000000,0.00000000,0.00000000
13.36070553,0.14810179,8.59932109,250.00000000,0.00000000,0.00000000
-6.36607725,0.03772221,-8.21881696,0.00000000,0.00000000,250.00000000
-9.86837813,0.12848874,2.64915923,0.00000000,250.00000000,0.00000000
3.12317450,0.14394810,-8.76502682,0.00000000,0.00000000,250.00000000
3.47232032,0.05798865,-33.98369485,0.00000000,0.00000000,250.00000000
-19.48467860,0.05960379,7.27880720,0.00000000,250.00000000,0.00000000
9.74959053,0.04725688,-8.51439740,0.00000000,0.00000000,250.00000000
4.17176057,0.14002839,20.35438454,250.00000000,0.00000000,0.00000000
13.57972268,0.02583765,-2.72031109,0.00000000,0.00000000,250.00000000
29.54212510,0.11981628,-11.06383279,0.00000000,0.00000000,250.00000000
38.34792778,0.01382325,-18.38993878,0.00000000,0.00000000,250.00000000
-8.32218595,0.07425606,28.64979593,250.00000000,0.00000000,0.00000000
-5.37693049,-0.00825994,-25.48483102,0.00000000,0.00000000,250.00000000
3.42661744,-0.16190679,-62.62199268,0.00000000,0.00000000,250.00000000
-21.57515777,-0.12067512,21.19841130,0.00000000,250.00000000,0.00000000
1.95958311,-0.01370320,20.05632075,250.00000000,0.00000000,0.00000000
-6.11784275,0.02226568,15.50863594,250.00000000,0.00000000,0.00000000
-7.12016852,-0.09342206,2.56423986,0.00000000,250.00000000,0.00000000
16.00068211,-0.10896598,11.21196310,250.00000000,0.00000000,0.00000000
16.27418116,-0.13133398,-10.00222911,0.00000000,0.00000000,250.00000000
-12.54976968,-0.08877143,-19.50851580,0.00000000,0.00000000,250.00000000
-16.23607810,-0.06488389,0.10425043,0.00000000,250.00000000,0.00000000
9.30099285,0.06401545,-24.66774624,0.00000000,0.00000000,250.00000000
-7.77990929,0.12397311,25.05957458,250.00000000,0.00000000,0.00000000
-29.71009085,-0.13921330,11.64792219,0.00000000,250.00000000,0.00000000
-0.70849501,0.15713544,2.39156109,250.00000000,0.00000000,0.00000000
0.51111619,-0.23368031,37.60889784,250.00000000,0.00000000,0.00000000
-5.97151237,0.01881817,-0.32396869,0.00000000,250.00000000,0.00000000
12.43274569,0.04412659,-19.59419451,0.00000000,0.00000000,250.00000000
-1.89801445,-0.12188612,-3.81685669,0.00000000,0.00000000,250.00000000
16.75839158,0.00177271,-20.25271335,0.00000000,0.00000000,250.00000000
-13.40484015,-0.07696644,-31.40718154,0.00000000,0.00000000,250.00000000
36.74175699,0.07081461,-3.47501199,250.00000000,0.00000000,0.00000000
0.59600595,0.10644232,-15.83189713,0.00000000,0.00000000,250.00000000
6.90438255,-0.00332463,20.74052034,250.00000000,0.00000000,0.00000000
0.41834671,-0.00687014,-10.43233798,0.00000000,0.00000000,250.00000000
25.92418249,0.02683024,5.16464906,250.00000000,0.00000000,0.00000000
-8.20590723,-0.05799880,38.43054579,250.00000000,0.00000000,0.00000000
-13.17327785,-0.00495673,30.74620254,0.00000000,250.00000000,0.00000000
-0.49742293,-0.16263943,24.69965608,250.00000000,0.00000000,0.00000000
8.05627808,0.11808571,11.35745196,250.00000000,0.00000000,0.00000000
-38.75455921,0.00100876,10.83594161,0.00000000,250.00000000,0.00000000
1.96151785,0.06886323,33.50099059,250.00000000,0.00000000,0.00000000
3.11148314,0.10331513,-31.99081322,0.00000000,0.00000000,250.00000000
37.59761662,0.03314456,-8.19519523,0.00000000,0.00000000,250.00000000
-23.74474034,0.06109185,19.12830138,0.00000000,250.00000000,0.00000000
-9.60554438,-0.08466744,11.83869685,0.00000000,250.00000000,0.00000000
-11.64279492,-0.19232388,-38.15851521,0.00000000,0.00000000,250.00000000
-18.59451234,-0.06924951,32.28259131,0.00000000,250.00000000,0.00000000
-13.74827811,-0.05183121,7.21660896,0.00000000,250.00000000,0.00000000
-3.11603742,0.00873649,-28.74797620,0.00000000,0.00000000,250.00000000
-7.97729002,-0.02907174,-28.33793697,0.00000000,0.00000000,250.00000000
-7.37097139,-0.15525030,-16.73798216,0.00000000,0.00000000,250.00000000
12.85373623,-0.07838781,-4.01165553,0.00000000,0.00000000,250.00000000
-12.11252125,-0.01241711,-9.08829487,0.00000000,250.00000000,0.00000000
28.39920838,0.06717801,6.31674338,250.00000000,0.00000000,0.00000000
-49.07137962,0.08100303,20.62468012,0.00000000,250.00000000,0.00000000
8.07189103,-0.07544296,-17.20927852,0.00000000,0.00000000,250.00000000
21.84822619,0.03166311,-27.29187669,0.00000000,0.00000000,250.00000000
-18.93497838,-0.03316519,9.20512633,0.00000000,250.00000000,0.00000000
-3.07704200,-0.15573858,10.29350290,250.00000000,0.00000000,0.00000000
-1.81140499,0.02441486,7.72254384,250.00000000,0.00000000,0.00000000
16.16553459,0.03469965,-16.37382160,0.00000000,0.00000000,250.00000000
3.80379934,-0.10349337,-25.21819510,0.00000000,0.00000000,250.00000000
22.67609847,0.18916920,6.36245141,250.00000000,0.00000000,0.00000000
-0.71121187,0.02577311,-5.04416296,0.00000000,0.00000000,250.00000000
-25.79773475,0.11596198,-0.64046241,0.00000000,250.00000000,0.00000000
24.50009245,-0.15521594,2.36695053,250.00000000,0.00000000,0.00000000
12.16329027,-0.03433158,-35.71820711,0.00000000,0.00000000,250.00000000
-18.08400422,-0.04670217,-46.66839999,0.00000000,0.00000000,250.00000000
-21.61341001,0.04764542,35.38625573,0.00000000,250.00000000,0.00000000
14.17278583,0.09477358,11.18707623,250.00000000,0.00000000,0.00000000
9.74559765,-0.09501712,29.67484067,250.00000000,0.00000000,0.00000000
5.92131711,0.10922675,5.98522419,250.00000000,0.00000000,0.00000000
17.41002879,0.06870063,3.23724413,250.00000000,0.00000000,0.00000000
-7.44139681,0.07246052,-14.91135272,0.00000000,0.00000000,250.00000000
5.76158172,0.14215609,31.63701353,250.00000000,0.00000000,0.00000000
19.48654442,0.07187714,23.93781442,250.00000000,0.00000000,0.00000000
16.22889276,-0.05310402,15.73742615,250.00000000,0.00000000,0.00000000
-3.31342031,0.07621520,9.24410364,250.00000000,0.00000000,0.00000000
5.41904555,-0.09142895,24.09139464,250.00000000,0.00000000,0.00000000
6.68059669,0.03480966,18.37379527,250.00000000,0.00000000,0.00000000
0.71877891,-0.13010934,43.13358703,250.00000000,0.00000000,0.00000000
-8.61285831,-0.05398128,20.11428535,0.00000000,250.00000000,0.00000000
1.73046569,0.04901803,-37.34881518,0.00000000,0.00000000,250.00000000
32.45676347,-0.02042278,-20.62712253,0.00000000,0.00000000,250.00000000
-6.47528217,0.16449742,-11.57334546,0.00000000,0.00000000,250.00000000
-38.07258594,0.04702801,7.28757987,0.00000000,250.00000000,0.00000000
-8.61089627,0.06681051,-8.04065814,0.00000000,250.00000000,0.00000000
-17.44908250,0.09044225,-18.68840135,0.00000000,250.00000000,0.00000000
-39.02257720,-0.00550807,-26.30686642,0.00000000,250.00000000,0.00000000
5.21763940,-0.02055080,-3.33072834,0.00000000,0.00000000,250.00000000
-13.65820044,-0.04631686,-1.05503265,0.00000000,250.00000000,0.00000000
-25.86379378,-0.00202839,-14.47888077,0.00000000,250.00000000,0.00000000
4.66433470,0.14216365,9.37697623,250.00000000,0.00000000,0.00000000
-4.49744549,-0.01365595,-10.33450519,0.00000000,0.00000000,250.00000000
-22.98404541,-0.11234838,-1.98594931,0.00000000,250.00000000,0.00000000
16.60635945,0.01456772,-8.43159389,0.00000000,0.00000000,250.00000000
-17.71226999,-0.01946195,-3.41133714,0.00000000,250.00000000,0.00000000
-11.48696885,-0.14380856,-19.18925397,0.00000000,0.00000000,250.00000000
-22.88351791,-0.01656278,30.04936586,0.00000000,250.00000000,0.00000000
13.58024723,0.00195085,-16.61213388,0.00000000,0.00000000,250.00000000
-1.38248477,0.03257948,9.84404633,250.00000000,0.00000000,0.00000000
31.30862652,0.00696599,1.33818324,250.00000000,0.00000000,0.00000000
-16.54790397,-0.08409446,0.24022792,0.00000000,250.00000000,0.00000000
-9.22745358,-0.02823103,-6.55913052,0.00000000,250.00000000,0.00000000
5.74471777,0.04321503,8.04244029,250.00000000,0.00000000,0.00000000
5.56461556,0.05362479,-6.49136451,0.00000000,0.00000000,250.00000000
-31.61526529,0.07701622,-2.14538180,0.00000000,250.00000000,0.00000000
21.02282185,0.02326634,48.68450619,250.00000000,0.00000000,0.00000000
17.22384566,0.05816255,-9.81746917,0.00000000,0.00000000,250.00000000
-5.39638367,0.09916751,6.26832595,0.00000000,250.00000000,0.00000000
3.76512170,0.09253908,44.53183468,250.00000000,0.00000000,0.00000000
-14.33018306,-0.01799012,13.50422212,0.00000000,250.00000000,0.00000000
-44.44319464,0.13906929,28.18331457,0.00000000,250.00000000,0.00000000
-11.26630549,-0.00804942,-15.75799980,0.00000000,0.00000000,250.00000000
7.28905955,0.10250728,24.32700606,250.00000000,0.00000000,0.00000000
0.31173579,0.11117906,14.82013284,250.00000000,0.00000000,0.00000000
16.67682334,-0.09480001,13.19980329,250.00000000,0.00000000,0.00000000
-14.89664779,0.12136446,-28.68991265,0.00000000,0.00000000,250.00000000
-39.12798490,0.01351883,1.88802389,0.00000000,250.00000000,0.00000000
-19.27595119,0.02464452,4.71810520,0.00000000,250.00000000,0.00000000
-19.50452782,-0.04994433,18.97976570,0.00000000,250.00000000,0.00000000
14.41619972,0.08344023,-19.74840527,0.00000000,0.00000000,250.00000000
33.45750197,-0.08649455,0.69025103,250.00000000,0.00000000,0.00000000
-22.82962036,0.21573454,26.17427931,0.00000000,250.00000000,0.00000000
-22.27918236,-0.01009387,7.51595987,0.00000000,250.00000000,0.00000000
-3.40562352,0.05002947,-8.21314328,0.00000000,0.00000000,250.00000000
16.85096395,0.09197850,-16.03529507,0.00000000,0.00000000,250.00000000
4.39219252,0.04751097,-8.15512572,0.00000000,0.00000000,250.00000000
32.71599200,0.11313452,-5.10207683,250.00000000,0.00000000,0.00000000
15.89703008,0.09742899,37.03799509,250.00000000,0.00000000,0.00000000
17.22560259,-0.09835636,-33.89132273,0.00000000,0.00000000,250.00000000
0.24128858,-0.01458550,-10.71253174,0.00000000,0.00000000,250.00000000
-23.77141048,-0.10275634,-2.03176492,0.00000000,250.00000000,0.00000000
8.12363158,-0.07635532,22.21963955,250.00000000,0.00000000,0.00000000
-8.17152360,0.05367698,-3.84036527,0.00000000,250.00000000,0.00000000
-28.65536540,0.14055018,-19.54458279,0.00000000,250.00000000,0.00000000
34.90706049,0.07933327,6.53909303,250.00000000,0.00000000,0.00000000
-13.69367683,-0.25918702,-20.50455903,0.00000000,0.00000000,250.00000000
-32.60727137,-0.11811398,19.25712009,0.00000000,250.00000000,0.00000000
-4.59635059,0.12059236,-27.27745527,0.00000000,0.00000000,250.00000000
34.36425729,0.01979682,21.62641014,250.00000000,0.00000000,0.00000000
-10.09874909,-0.06846967,5.54190606,0.00000000,250.00000000,0.00000000
8.50128557,0.08104619,-12.77517887,0.00000000,0.00000000,250.00000000
19.10085934,-0.15429381,7.22516341,250.00000000,0.00000000,0.00000000
-5.50764020,0.00387456,-19.79108081,0.00000000,0.00000000,250.00000000
-6.81434300,0.11193773,-1.42002403,0.00000000,250.00000000,0.00000000
-20.28048593,0.04078717,-5.79645248,0.00000000,250.00000000,0.00000000
-20.81405070,-0.01816769,5.33134073,0.00000000,250.00000000,0.00000000
-11.03326844,0.07787404,-3.43843143,0.00000000,250.00000000,0.00000000
-20.61030820,0.13710707,-4.87112839,0.00000000,250.00000000,0.00000000
-6.27182247,-0.18349346,-11.48935643,0.00000000,0.00000000,250.00000000
-8.53490798,-0.03068771,-26.54633521,0.00000000,0.00000000,250.00000000
