-11.03879117175934,0.038406134020893934,5.075243446939741
-3.9362926172769934,0.11613999993893609,52.712256201117576
-11.11998256350015,-0.14262163398644848,10.67588649429997
18.173777735837632,0.008863513074423365,86.92027491665715
-6.16478458063114,0.1730748199355776,29.242480229600037
14.909422572886339,0.15400278711603232,-9.260477735022363
1.5359404527389544,0.043750163202559145,-38.107939615338324
-39.34662697196918,-0.0007878532878418369,136.49792282243038
-26.778584715702536,0.05932628773095298,16.082139699524568
-2.7791699692413325,-0.20133393974911123,-57.55762519081902
-3.074439533008278,0.07391649150459313,0.13259469624172418
-1.9346396331819995,-0.07388614882569254,-48.72209754148946
-27.041056458759908,0.053091449154258286,2.488192810039277
-9.70403402650512,-0.08291178417849245,-17.398910360813332
-12.687747470806752,0.12407525303729479,18.030990959938734
14.339069428371529,0.06605508063926863,-45.61778386190589
3.504858631505763,0.08128224984819554,25.505827963234076
-1.3223586005416887,-0.13890043264867577,42.02912462161669
30.713271138050324,0.20216009407136656,-17.566392058419364
36.15312532654664,0.2002033092370169,-26.657237326121592
-10.033388112306284,0.012102384806762526,17.531010629224856
16.80962407096419,-0.05069595805466262,-8.174487166347046
-5.5218322030133695,-0.0320744662037074,-21.032250708438127
-15.525626940715668,-0.08100450937203668,-22.92568743034455
12.346651623643801,0.010464142456948947,9.382600662029851
7.408253356585977,0.044652529432964494,12.226107354551534
3.704209985636827,0.052530811262640975,-52.10137991626997
1.4984053984040604,0.08313925471790867,6.037591595486482
17.131716636796344,-0.05652802237767031,-2.706874896850569
1.187314773525765,0.05039655594218089,-1.4878834499675895
-23.723318359588234,-0.0969036469328756,-26.809196911094947
-34.44589962576675,0.06604899592313672,8.009902116936061
-4.559484103863711,0.09303140058402545,-43.59292519679818
34.59627223883929,0.07153507454145215,-65.61289499325478
22.771510888363498,-0.04056832376112576,72.1784057430688
6.235644352853957,-0.008163194640474542,73.30584668924025
-13.90120599742766,0.23206464862869286,25.66907302812698
-0.15047109411939355,-0.11555338629534176,8.994163650061616
-19.11240132299853,0.0431825431891019,51.235375630851046
-0.5281760416994931,0.09706269282276311,-0.979401867512826
20.843680308196216,0.1431639010237091,13.483589796157286
-7.774204748088284,0.028745046839754526,38.00430525038926
10.681968999761546,0.018604306603053847,7.291145167281151
46.144063840461705,0.00910599514205428,8.157457077916806
17.381620481522784,0.17933241718628257,8.879252133891612
13.442274759303068,0.03253355117440339,-50.39554534090006
-6.455978186851283,0.0007771483964602468,-58.01294490609241
3.8689173212923462,-0.0669603627398477,-48.164515136613566
-8.057988236765043,-0.022118077637285617,11.43792655701413
-25.20357901118941,-0.07451547963095308,-9.620645994372861
51.18586189062125,0.22368426291888835,-19.881167900355152
33.00080034054757,0.04507806758273008,-17.539779066370475
-8.48897750968083,0.0897738004779874,-21.49765752448579
24.407298610998897,-0.08670746162609388,14.845070441521859
6.075643865336822,-0.08955973002826617,-6.866953706965053
-3.4305253290356585,-0.10655062259818743,22.724651399355345
-18.71006511903445,-0.0012711995975114086,-59.993383966967485
12.995617391517873,-0.0284787726204863,-62.35106256743844
11.552085237651555,0.03952157662599441,-0.02507549456210259
0.7949146256046087,0.031023805363650965,14.298215612949656
12.22937794122555,0.05997007910361951,20.512591868476395
4.153115786828917,0.15441575198211854,-8.40132598448602
20.046468886156013,-0.027594122541776157,-73.25257473644334
7.22953351924768,0.03060345730962742,-7.686387519183989
-10.524962152853645,-0.10298256937614461,3.4939344205998877
6.240520057932332,-0.010682707405203986,45.841084977122144
16.006884640299077,-0.0642211940460775,-18.15764490872137
23.09429668841148,0.10201419338599747,-5.289395246020075
-8.89322064541701,-0.00684261128653555,44.9550389572541
1.205586302477959,0.08813952753776534,-31.772696436526267
14.220694574330759,0.07092049912731792,-32.426081145091956
-34.35832192202337,-0.10786584593005406,-56.06534744908448
24.014212221621793,-0.017939146556505515,-83.27069037075204
-0.5688410863442048,0.11952889291279112,50.15742621241539
30.74021499675848,-0.06478154486073964,-44.919610277397474
8.284548456343327,0.1463534480489294,-10.984549567420288
-9.161122540708837,0.07244542460363775,-1.8453689619360318
34.45697265019823,-0.10182086135765236,-58.445800236810456
-24.54043726164091,0.193442416327501,52.76065458142445
9.915347730804076,-0.1376502420822487,-3.4071110892070458
-14.092940866775209,0.18133420953938273,-34.47269702844049
-1.4595023045409228,-0.19390947382638601,23.96733677667807
-26.424804562007083,-0.09146066365881639,-33.77834402095553
-12.207785170898413,-0.05151272957874592,66.06478770798057
-3.4947228797452237,0.11871512650707322,22.40202270101427
8.396064372257934,-0.11961877055031106,93.73397605498086
3.5422200756940425,0.009504030948370774,-16.616758473372816
-20.674937507481694,0.014040098288918994,0.03938971118126293
-18.801033862325202,-0.0049939967341453,-43.73939454474245
-2.536195085849815,0.004719446254607541,-32.83182371660773
-5.999839508951217,-0.05406800188278829,27.392696592115314
5.054849971576734,-0.15837091821054392,-66.63759987961687
-1.3093836319636407,0.05491203473757721,7.392824149148226
-53.58887994452089,-0.08089148146046336,46.818577217623385
1.73181928777855,-0.08184882426086393,-12.757180559734184
-5.715091684240916,-0.16216492834764207,-74.87525311066955
8.84753526156947,0.020752238598802195,12.505258625916206
32.676389279458675,0.00045922685142428933,41.03443428615792
-0.5961068307060959,-0.0022269888621307935,-43.395459080924525
9.321767290581535,-0.044476639075525744,-20.59645844023892
-26.004439391579073,-0.09506302081529977,-11.249800539279576
-14.67017589433625,0.09290974476269107,-15.475880617034646
-7.264095794252114,-0.10620998053786922,-13.833538159191484
7.9219435437168215,0.11243725053565501,9.830603118874894
-47.41669564635345,-0.040534433496203996,30.14132143495761
-5.227350513515814,0.06558424213301889,84.0285768216352
-2.81141769368951,-0.15327296663810602,30.031757241531984
4.547323085724063,0.052885419142271045,34.21228192013682
-17.058794799464362,-0.12098320663382132,8.514314749360102
-7.3747075276494325,-0.023120977299890672,11.43833107636128
24.27146292017914,-0.007606375479591328,30.1558300870534
19.89051206055297,0.06969410944334005,-70.48219364258026
-26.42855539388097,-0.07030567895965223,24.413685608151457
5.3465641615971595,0.09507417694267692,6.305120585160636
9.231575360542315,-0.2878645337740768,-37.63452736174553
44.73567277983116,0.15689877474542185,-7.718543399824861
-5.438458583990153,-0.08710528500681439,78.31501930259972
-12.755851182345525,0.009749089621884493,-17.012113018381786
-34.904232120943234,0.06611479269697818,-52.16418303736595
0.21538393371765874,0.09135892338369168,-15.998631035198514
-0.8899526064125117,0.01576310488364579,9.72222179693033
12.487709743963158,0.1337077243266005,46.16004788175574
-13.781652109206933,0.15855725893803752,-75.41438835891336
-16.956393131386005,-0.09445929266586876,36.55657807417176
-28.5235069208608,0.014548383819513185,1.3493554324506605
-12.525040407075052,-0.03536435390314949,-58.15122339458937
-8.68366418622205,-0.040357885085810556,-17.192106020251067
13.12282720488112,0.12942324743435113,3.523853314054179
-19.944867503333615,0.09311889942687246,-26.14546082431226
-15.024855824518259,0.028427358785283754,-10.77501665595349
-23.932766112598088,0.11743963692996584,-36.50837039984545
-2.418235483739934,-0.09681633518161531,1.0747424549738447
48.785057479374004,-0.012441205485294201,-63.19958392664855
-14.195468259611868,-0.15237153853653695,21.235164286884604
-12.008127009690746,-0.032562141622330176,-99.97302720423937
29.581537283150674,0.04395526473699639,-0.5144501045652707
-34.757248541163975,-0.12360993849507436,-86.33141637767812
-31.92737934084302,-0.06642060220993488,3.887876982281177
-6.18586806783224,-0.21199279893982292,-19.09717499389044
-0.5198969334453929,0.12375690960036623,-16.816721515140312
-22.641439289489206,0.1902476342631852,-7.283783108666616
-3.4082458039766896,-0.1620248328283605,24.304721381837645
4.006946041469805,-0.19473885524533616,-39.159199572256654
10.24838465784448,0.006719121580823735,-3.249011463265925
41.0085009657515,0.03317352315773444,-40.72397808173989
23.563051880781956,0.09245941699465099,1.1689487604281426
-9.547019991969584,0.10719885538525419,19.088883223523876
-17.407417610213095,-0.021058017532217036,-9.72149369534822
33.15018606089924,-0.011736263067539393,-51.55320821327848
-11.466878011263528,-0.08393293830010964,22.070878013776273
3.0467983800039145,0.06610961018688558,-21.47444581348512
7.644684695420779,0.08247550518607749,36.10747431155015
20.48005558745366,0.09132249316018941,26.7987271238769
32.52278997015724,0.12101131191653453,16.33132226222292
21.036445783976898,0.08470636797193416,16.88991187493016
6.310769672560214,0.0914584546679037,-47.488366216978115
10.700364502015704,-0.10177543264387041,-72.50724361690283
34.83000688350292,-0.03846253098195736,28.787600125456866
-6.282278318661547,-0.0325585099000699,-17.200195079301576
2.898104537912745,0.009964758982784871,48.75333168592405
26.38006924460678,0.07463875620802235,-21.025287286379246
-6.772466446933141,-0.14109485902012714,54.69992299440087
-20.99019886148256,-0.06776511408551543,27.117830060569958
-15.752826526137218,0.05673250387792979,-42.6982291354705
2.801972002892019,-0.002284554922531123,-17.83439384106797
26.208768724408195,0.11372084333305568,-0.7826616937148833
-12.594759989717542,-0.028484519065773036,-10.18028900232418
-20.42522461514727,0.02472299450730756,9.55809554762464
0.6500524255823605,-0.05046247056139356,-79.80432825927119
1.230454274480211,0.028909898395753048,35.7075448355666
20.01283245347514,0.14467045275050563,5.243802194733918
1.4693409775545772,0.009636775270531825,36.66940228118563
-4.617478726265172,0.10636450711037249,8.676811995864353
-27.177135037435566,-0.09940908460902956,-20.709813539007563
-5.751469399853226,-0.05347509609404571,-26.484457486675524
-15.405666670622782,-0.16636253480686275,-39.41692977747351
-16.465981621353187,0.2054977028169973,-3.1340853420367742
-39.45357861962255,-0.06815570371711055,-21.286531291023284
7.0396115083506725,-0.09714518477771823,43.77748887967507
14.847461792072167,0.04527881446137411,47.81334689415213
-10.941726105817713,-0.18147738194880791,-20.611287870184036
8.444600130644597,0.023959522868360658,-1.9166579205849776
27.92699626994579,-0.15183009508458087,-13.70516978997731
-27.843762928235428,0.016488009373006034,-28.229232115044752
24.379547845562257,0.11040539005775107,18.08611759768416
6.23460258322266,0.022861451103027355,30.52819608120466
-25.42656331419614,-0.04259559448475854,20.024116719541063
-8.978265314727027,-0.01212677550070134,4.499337524373396
-18.542937497197542,0.04114632359563778,14.857124668094455
-19.26909964987062,-0.1882780673291541,-33.877613206764394
18.810920134270845,0.1375661890907326,53.661735901948894
-20.344496787014542,0.026696099530493535,-13.28456149459692
-8.590428134578207,0.08897848120146803,-25.01074003792798
-6.538340738472695,0.13765278416852358,29.594993575432103
-5.956362177362501,-0.11879871222089806,-14.0921677283357
1.4967260788283485,0.20496597441217068,-4.8760258556003695
-2.3135756692380984,-0.22638326676904846,-11.109662667525107
-10.166409306377037,-0.17308292532126365,-18.231511405323324
24.10221965787702,-0.10350614241164119,-9.150899175772045
25.779509667531602,-0.049158430986918716,58.74397591456563
-19.425127664346206,0.10016785292959274,6.016938832975345
-18.004826895490574,0.03845865129040436,-3.033950579599345
35.10786383081835,0.012243910095603175,75.9772381680339
-13.699520915125003,-0.04517181179397853,-27.46981159892237
12.031143743247783,-0.22303244684767667,16.30502277925732
-14.830355678129152,0.12462299953426428,40.65148605087523
1.8245215149410074,0.08711779096693206,-17.60007884706418
-3.269517395852451,0.05300961054148509,-31.595942040972787
-2.1861807555080244,-0.15256102159616292,29.585450487331144
14.770711686654439,-0.04726679914689684,-38.09419548832095
40.34839195876457,0.009074825416485554,13.265291136665752
-14.530330804113014,-0.00956715350991608,40.290824772083496
2.1895873429529535,-0.10926596415106715,34.335708072848455
-26.306115066335288,0.010933743685214964,61.11600385680205
28.889242043943263,0.18776129263772012,-5.74775592515257
-35.60299829083417,-0.0619208087388273,-117.81907234960252
-25.106102710011825,-0.01901718430207971,-3.607422588249855
24.146930799867512,0.011584145466552299,32.129358081434575
-3.1158527536135834,0.05812050624631654,-32.57056596688577
-22.8412212084582,-0.1882612549180488,23.95374541487156
12.67428784263948,0.06192319402629235,-22.104781130858278
-12.948042501057138,-0.029642149617935477,66.35089459540144
20.294112152370353,-0.0031562492476028547,-60.37618139796626
20.30479031716428,-0.0824353996011827,-12.789065552762164
27.378049135064146,0.039877644308025456,-97.56750187717367
-43.052253181562044,0.07042059313809497,42.37442121721748
9.975779608809844,0.07859806546029058,-37.570269668400044
-17.826433512824863,0.05757891996757632,-9.145608205751595
-36.22921009604333,0.07128259976131317,-34.03804955622438
4.2542546095688465,-0.10392008383453061,33.25645390120964
6.7368581901214375,0.004422826534840786,19.788822956875396
-13.592409708270957,0.1179324780287303,-8.48519193754509
-22.77892527572224,-0.15927640880114893,21.92829425761818
-15.411935942211185,0.17381035320665142,10.716617765590534
-16.792422855493683,-0.02399275932196157,-49.04920793156055
1.1442412866387042,0.20702419015934848,11.42663077149848
4.055412447039853,0.03793253895693201,-3.93127315907767
-1.3860754452734003,0.18666139631167944,32.669232030534985
-7.343088951562219,-0.0783382022413304,-59.28556835175517
-2.1412040498656952,-0.010509162273312925,4.20784358808838
26.42697625800509,-0.1052926538388614,10.777213721222203
2.2046744743861995,0.006532507248153355,42.09380107949242
-1.7676722912229734,-0.016113461088239436,34.01105654760697
-36.40637391505889,0.08516946291963978,-25.702600383000537
0.29468968267126217,0.23435734380331097,-67.35956084855415
14.421336282078308,-0.004785652287497128,26.430833703699918
0.7164126268299285,0.05194355347679263,102.01516385261883
22.512343894184145,-0.04268033278375985,58.77295212492017
-14.437837547855816,-0.11496473940669763,-23.369482271503426
-30.609300295968715,-0.13692450412758572,-3.261688459577208
-4.366310335097291,-0.16031670286307603,27.277366591111694
-1.427099177375902,-0.1002399926747346,40.611380613527935
-19.375627841381608,0.14994893019953848,11.89789246596964
-26.55695358046544,0.10656523615552278,-49.85737219919191
-15.083734863183913,0.03688793264327382,4.816009455245168
-45.53237153390883,-0.0572518580099499,15.86356315472358
45.92287888417915,0.11932833111873131,2.5292880547580525
-51.8985505835795,-0.03992726132463639,37.7067835449914
-12.66499892949846,-0.07774352480520827,-0.04092578198672051
10.833031569946698,-0.05278268590253854,-8.99679771084876
-9.465377197647568,0.04206614793222312,65.37181754880255
-11.081119704950364,-0.017211556965969075,50.49931504586452
-0.0673378256816789,0.03984958471133015,-3.5528231301768876
2.1850633608148344,0.09800131544346545,4.909118468249599
-2.171706771140474,-0.032930263184911254,-16.77623426950075
-20.496044506305914,-0.006152488791058373,-31.234139758423257
8.927473280264104,0.04808865827340526,-3.102091983778879
4.37735173416036,-0.047917129480047164,-31.85804685690938
-12.323615128262016,0.19724689175198715,17.836304321342954
16.82019256375953,-0.11895599029662628,47.08647364236527
-11.314444973706149,-0.025801230815007938,-43.96556171104376
26.344733209306046,-0.02235524453694692,-5.08283380871643
-1.0794465125112946,-0.08516941819182844,22.363248118637138
5.946882458448453,0.004461649259844282,-23.38726464011574
31.53192573217375,-0.029352060399288282,-58.275094023853896
-24.578187320031443,-0.03417935261078005,-28.039067115264903
-27.642367004893238,0.12930265691083473,20.15587457092502
-5.106711236844854,-0.08316923828916258,-106.54076900629484
-8.518033872107983,0.018792141237224988,-27.19347274708069
-19.729394079610017,-0.0996576217100115,-0.13526875666639213
-10.934034415107023,0.3200583784102454,40.535058877511716
16.053489940596023,0.2004458401758764,-4.42568056478117
2.059451564815173,0.07881782610589967,-38.8149009787072
0.7010119089907884,-0.12611580280996162,74.47498450682077
-11.385090856642275,0.051921909760236286,46.393181891092475
-16.570776556634005,-0.12285813490920268,29.12575208723192
-10.471731559310996,0.05181044742664727,-72.39188603688801
-9.860047895944337,-0.008423808162763988,-26.804365782541794
13.301958934677764,-0.11055745978592411,11.657569727751815
24.541059437269222,0.04094985670334622,-21.21610503288174
-15.918437534397311,0.13027239202298285,64.92769525225539
-48.91770488920037,0.14859235529886047,-45.89057482746614
-16.503059872580472,-0.04388475045013982,54.0857567393508
12.926754121126438,0.1257682066441532,-52.79472044025799
47.369686616093034,-0.13634115220650198,-9.043642612045398
-1.974422375501165,-0.044484526099693174,8.501477555862978
3.8391695860589996,0.0003430760504878239,-28.94964724820357
-36.69168025876842,0.001887841275479361,-49.78551275392047
30.171976382338105,0.06300987974849585,-22.76304742204872
-15.77769622012565,-0.006433457586143884,16.343808167875142
-3.7124916807868624,-0.0934018175799447,77.28689816313025
-11.233811893023393,-0.021553718992887924,-20.087330269809026
9.916532768085396,0.12289823896954231,-21.10240615630662
-9.781825346532244,0.14342658348227744,-38.29233919700983
-13.991482619109084,-0.14992286975311206,6.5323756547801635
-2.1864419497966803,-0.06435584300424634,-10.570050191275397
15.258132816563847,-0.07675488848469161,0.13745324835816397
11.447238778429558,0.09987378188899593,1.7447174768866187
-24.169215245031282,-0.03041657744641222,47.81554993237232
-0.28715143530039927,-0.0740274362877384,16.339784932519382
-27.66047123055857,0.10901087622204918,-2.868123989609239
1.899003646743036,-0.18898522603489112,-19.69674369287073
7.481309259783182,0.06706272331240154,-36.44866799356308
-5.1286065191373424,0.07847261064796061,-54.04028243357907
-20.105282828377625,0.014424638467746262,-21.27216677777643
-20.324671921399997,-0.08968533259295099,37.97587618311741
16.986799654577506,-0.14074342796584327,60.98523706251793
11.230837158908116,0.005862294399561426,-56.187192044904
24.854249541689263,-0.0017846687781725556,-16.567291698141997
43.800435393045085,-0.09588583482772917,-9.975540706013708
-8.606826284936147,-0.025866368130486008,18.381266443216845
-0.8157928711390123,-0.01192205444545162,28.633990799608206
38.93889134450777,-0.12068047772561824,43.95277231215263
-7.8161625856843475,-0.13247164528397357,-42.93003982526555
31.42928681246241,0.15046716825588594,2.8278849718966015
-31.373114348666228,0.04263807710135526,18.843507560497375
-26.527603556815265,-0.11933989280451143,-24.463065993423445
7.925766728675937,-0.17099753206709511,25.468830991365444
-6.451544743358141,0.16035282181842958,-2.813559986932282
0.5258578010409501,0.18981697194929173,-59.9135774382661
17.07191350268441,-0.01759874464458982,-7.250509646338501
-3.5544406716443837,0.16505450508950992,-47.160244667741026
8.505086376855706,0.10632968593975123,-54.375704166907724
13.639623271074424,-0.0015022803663850748,90.29104317147572
-8.059337046526498,0.05155952880071331,53.353006796022086
22.463094749754745,-0.09845496166155376,-50.05299618731542
27.208954898540018,0.18864140294685625,-5.710202464177142
16.100236173313824,-0.10909845174108271,76.4439622968843
7.224918821089745,0.15791033514951358,-5.135669614603816
3.8170261704648603,0.183853848702016,-11.59900690163246
-15.648707579574442,0.00013233657976964726,-43.094226508701524
19.722668362154852,0.04845461633523783,-5.773840470291596
-8.184811187569307,-0.17126392643581154,-59.69643605379914
11.392442916363558,0.17242606177002318,-5.884115449172911
-22.942842980311404,0.10526214280055408,43.31230094264892
-27.750698873892855,0.15122312548734299,-38.203069268659256
-15.774556212412199,0.011244114461618646,79.51077575518482
1.345073208299228,0.006360890341396131,9.691626528002448
-21.89358821406214,-0.00025983418038809576,23.496080023256493
16.889725944241782,-0.14507155588281914,43.89456009661436
5.631854552976189,0.1411304902141961,-45.467145639617286
-41.82965241905316,0.06511759171712865,18.537032391527777
-2.889431355023369,-0.11181235658078499,-15.649167893960353
-25.83108392215504,-0.043004125102713966,27.494848492251386
-3.8790911549806486,0.03631164352326461,32.72618366591732
-0.7735112904899816,-0.10682355372790264,-34.95364989660541
20.04555738634485,-0.07094908612315086,44.214832754164384
10.80618738496689,0.0044662715555403585,27.782621869495237
-6.66365670387469,-0.09261178752641176,26.36156477917147
51.07991007776273,0.13475107499129568,-39.635584434939666
-0.19363016715743525,0.06985522281627549,-5.278537902179089
-8.91333384634384,-0.09657816788846363,-19.63928884340795
-0.4078885689426467,-0.006056234733357411,23.576734288642292
-57.260711165730015,-0.03719440505016191,-0.256926002886938
-29.169554846127745,0.15631335302613897,26.74681926519501
-6.948797076040584,-0.06759861031424418,-1.7333055502383812
-20.57431764420128,0.2719928090491763,58.67203800498669
7.930230087801467,-0.05396438039583182,-3.9445122358302025
9.984261669737243,-0.03422636299158528,-30.007362060043903
15.111104551283535,0.00961842214725183,-13.719801966053867
17.944530246394923,0.04287720279381722,-50.79520889071293
-45.2491006452044,-0.005286408365266844,-15.646678563942853
13.232295729488827,-0.06143208499018692,-2.141656589760434
-32.0101147355522,-0.08731792224769391,15.075283358793467
-31.29798933726784,0.01070744058303863,-26.60061535150117
2.232766771272826,0.10347461417210152,-53.96600393068552
-17.319626672804674,-0.028592642415595906,-59.66540759926397
19.380109235560784,-0.09555368118352722,3.2366897150402467
15.83999707321611,0.01756015244176746,-15.630672503212073
-33.19311784561322,-0.06979907854707465,3.5639779062459165
20.258440790173328,-0.21696625395396907,2.595730939934863
-70.25699759633471,0.2014868077302764,11.121166832864569
-9.101263144747232,-0.13255232034872308,-6.145127180643861
8.118603249701561,0.08872092206243753,2.0135994781453332
-28.59920439548748,0.11402496625254106,56.334152080541244
12.342634089001185,0.034822819414295596,20.736750746411452
-30.391288257218193,-0.023399131880127585,59.85155553295374
30.806566474993407,-0.007155860077215612,14.212083793700256
10.107601309491736,-0.02327790507570507,29.67218925920786
-24.95468858759946,-0.15784485318439384,-7.186571550139263
17.454161529483137,0.13474779645715868,55.20870597378718
-4.343558238245726,0.176169150526518,29.87668407322552
-3.2114030138555787,0.10087549571764381,-1.4433125610249762
-12.328943832900253,0.09231022470303141,-2.9197166189275463
-7.084056092522813,-0.007386716940968143,-50.354849253318974
21.752581423694537,0.0032444201662802045,-36.14475762266083
16.32326147098967,-0.11392785798495382,-82.80693671370668
-19.311845761951556,0.07277230505522042,43.66032581909535
9.679811029261247,-0.05436390764683463,-5.3207386790621305
-4.8012759380863095,0.05561768132883915,19.944476614834787
-0.5025647071269803,-0.09148926801400929,20.17536400140626
-1.910059779199749,-0.043237022556228084,-60.97179232515553
13.431162445826637,0.03590411533144727,37.64848719065582
-15.914615237707872,0.07697607249694521,-46.70316522954131
-3.7099029218403325,-0.0651329369726286,14.292129288593777
-36.872055254985256,0.10809039161994471,2.094371508681857
5.980081318128461,-0.07988069692333374,-18.725199455737705
-5.8172600029632395,0.037952507491423176,7.473010625567072
4.4350923200081,-0.0971135675020473,-7.478465217147436
35.357641248163524,0.2012416199359084,4.92154811170794
18.797770396778045,0.03550433801937289,-10.67452514406616
-30.570263124911815,0.11586066255616737,67.82308714325792
3.825975951652567,0.10556924195609951,-3.6965334849336067
3.713247595895417,-0.08871462690699683,-7.045479256683852
19.826687665640485,0.038434713658845904,14.977535904492816
20.4342788162149,0.09732367853528397,-6.548068851107393
12.276497583685313,0.04906872244343691,43.685041914206565
-4.5789913868249315,-0.09238631152420886,60.196731300912454
-3.4423071183791083,-0.0028545942950023648,-1.9484522425090214
29.965110763900526,-0.10131191483410035,-22.80313124639124
32.81595377680124,-0.07067738806811108,-35.75677519492478
1.0779095599682664,-0.07709173242583221,0.054644170954767535
9.960049499088568,-0.09306297472209929,53.58454876810814
4.008077853481185,0.06771461709477075,16.567739980325612
5.5178771418199855,0.08632903647694014,39.35299906950485
-7.2095099124951325,-0.024433121024625037,-94.06510312275907
18.22503127713469,-0.044127735558867724,39.5823777479629
25.294996108667736,-0.042189402652521274,-13.623066478619455
6.09714385990232,0.023392173171148528,-38.60784733849924
2.9649165447473536,-0.03877602488319805,27.567802628875043
15.261849701855164,0.14404461411303546,6.420960228767556
8.45679484953823,-0.09709847080207824,-20.793250006478587
4.036298739666026,0.06230134427746186,42.53496485555996
14.344315488796521,0.1062735221636708,-4.1522250311799604
-20.90745472379393,0.013737689996899921,5.610644006744171
31.219858954389174,-0.02121546340742996,31.96283039559692
9.387075411986576,0.18441722452411968,5.660099418678188
36.583119512832766,0.01076753705259505,57.687159136559664
17.596567182977736,0.11117430319723097,-65.43553349838146
-6.258778946326553,0.05439043210358843,-25.951043914578975
5.152616903401126,-0.11275144002607734,-47.85976128421446
22.692990739196468,-0.06651768020183821,-21.533478598107312
12.16367839262432,-0.02102237119448256,19.799279734665
-19.55143119048716,-0.10311119430651959,52.20695839928696
-5.164150200882939,0.029083460809738244,7.171754790173326
12.838884154749152,-0.07180286461162783,57.313694452259924
14.755913645161947,-0.002458728248523923,38.664333699393225
-11.928133469741745,0.24360672455126406,52.82686397519448
3.463861656357032,0.20128064171453022,5.736895258181618
-21.936208910618106,-0.004703647835311649,37.01586379666422
-13.968006906759904,-0.004877918312723763,37.68341752912618
29.310133269536536,0.06166305018487081,71.06586648822409
-4.484486565063606,0.038773739539875375,44.36803889281103
12.500679111387372,0.0003029502535717788,11.95477865395937
5.410764918150584,0.08891683867759415,-9.47075787758141
-6.780178139780495,0.14577158284482758,0.5657668403526902
-3.87804808056071,0.11978110359038144,-18.481101933096117
2.3123009495796416,-0.03993965318851036,69.41947419204544
15.56079334024081,-0.023854856298685983,-27.97940803919049
-12.533652000316817,-0.07138988374494742,63.562188716388405
20.497853685211723,-0.03986688344986,17.778080906166064
32.022796313827,-0.12659589839998794,-8.25229369958771
45.38114873888426,0.05144129992236427,-21.76833519086515
6.885375294085235,-0.1563412156495259,77.42591628051098
-2.980467159136953,0.17901075263525779,31.78806534314202
9.50109878477699,-0.047434624549539124,48.45925053680662
-46.35770848543661,0.04628374758662791,36.0079166846149
-6.229765394604636,-0.02545970170322826,-18.162060827119973
-14.672442820641468,-0.12189461586870194,24.49033799523088
-34.47579847702198,0.012418477037900454,-73.1826898330325
8.35261442697936,0.06107198193329009,-18.96871743866533
-8.496540868107243,-0.04726795057686454,-20.14183535682561
-33.34946301846676,-0.029216743294275982,45.98057049654982
10.274397933797154,0.04699140805051273,21.794904389278948
-15.653813212719786,0.108260552167832,-41.32216973120396
-26.270007203933623,-0.03974117009406826,-3.836850129892074
27.570713576981916,0.015669554233887537,13.145836240323572
6.925983392101988,-0.06273496930232998,17.47230062103259
-13.869744239408634,-0.10171066842439838,-31.059929982987946
43.11549805754636,0.011113542704731102,-2.0680976110020417
16.089764753933228,-0.043773728027693054,-56.28396568684876
22.794762121570244,-0.03160711326220933,-42.78698829028346
-19.907456558714934,0.05492415074199291,-15.099271046894094
29.54824852804029,-0.21403655324570106,59.249362441708584
-5.876960469907156,0.03522981634163199,-7.421206905228809
0.674158649626493,0.02205329997703775,37.12253897575438
-0.32493453578992443,0.026739378483937343,6.260224796080117
4.235245730778045,-0.0690731176355999,-46.65958514550244
-2.3455965406344905,-0.08569004506205041,-11.601533976042353
45.42228723905487,0.01828533583715123,39.21160998902861
43.28261265874805,0.10615692033890085,-33.80198033874941
-7.032506863814899,0.08312944848628862,-33.78835193472037
-0.028275078645897248,-0.07253101741822054,18.558079483047887
-25.16124564186944,0.08632810319323539,-29.361216652692367
-1.9598420033842898,-0.2442848180080832,50.56612682904466
-20.000066921333726,-0.09827202507001348,5.394643390504027
-7.984535245065879,0.07104886297196446,-114.92200633437167
-9.928893923527207,-0.031167458220553803,14.964960985142712
4.90298061603409,-0.03996732754286261,13.609522924246733
-6.7624618498674245,0.044284866979116294,11.714078646421795
-4.808401117803995,0.023187236064178954,-40.192753639377756
-27.601882516016957,0.07985659515869609,-28.229487573216993
-55.24268021851106,-0.029279924699947765,14.64802447042973
22.13958812568984,-0.03810432504057769,5.6249239568152865
-1.504928941963231,0.14557674222528363,-23.55108788916288
23.869803672308144,-0.09259942815117028,-9.20120786449214
31.470944689662144,-0.07590656954182894,3.159031596722029
-22.45635232289424,-0.12697764492233432,-4.326619003157747
7.0544120112417,-0.04456514318507496,-50.670455722647475
0.20929137586062743,-0.06528817741767488,-45.65864583579058
31.243293775900156,-0.17526788254597095,-20.454121600706777
-10.748014649030658,-0.021182627022578886,8.977170772983543
2.657651250322623,0.17257622062764963,11.786822368722461
20.319552452876565,0.12866782499146234,-11.61072172249632
-13.888182085698775,-0.18239190824425489,4.3592143392089335
22.187374789400913,0.011119562855382261,-10.890576010616428
18.956526413001267,-0.04060602123570667,-69.54519882185238
23.0481410720969,0.05929910664856121,64.13620805429835
-28.430761759302136,0.030515594369905877,-36.731186210068614
-20.84275526123157,-0.12075932723422877,23.088925936931336
7.904899535695385,-0.005468279155481156,34.04003976923802
-19.46966817669115,0.016553064350815334,10.864424534589094
28.398035443480218,0.05454585883456044,19.558919731355594
5.786478463595853,-0.1344394812220426,54.974380868587296
-8.418032099746775,-0.0018137925407252027,-11.980266026849023
24.21503008083572,-0.12177549407117359,41.00619661027672
-39.96224770870958,0.021947056305382906,65.97347643673396
-1.7760878927384705,-0.12589975953191165,43.993407960316055
-7.735694027078966,-0.022042460823778635,-5.179877957244878
9.978999621515783,0.042518847781436386,72.06890999472441
-2.8466241172213373,-0.0784768845142135,34.773863731092035
9.79768126636271,0.04164729569700035,24.886995069922968
24.413854569732667,0.08766065586457945,1.5030836230627633
50.168397389305646,-0.022765964394103652,-28.695551162921337
15.813239608973182,-0.1345175866160657,70.34905931124284
-32.1368592069532,0.042572490839440084,-38.1521750985896
8.017746697049127,-0.12893862103359552,25.59223216177967
-45.74996607088548,0.16236919294941143,19.86572251587122
-58.78616917222303,0.12705511673735234,-25.348182770637
-47.37336184872227,-0.07279375048946989,-2.1441495020761088
-34.246340591339134,0.1486000020819416,55.26060842999052
5.653584939705093,-0.03356497101067562,-3.49582804632584
-9.280409365345308,-0.08772514359388728,-31.63489439681723
-37.70869111283776,-0.10731703323695839,4.0887724489622
17.535296176134416,0.07546628439830246,0.23734151239989415
33.32704474907093,-0.05833674754441231,8.218007874546352
2.8393155785513042,0.00010196560370583157,16.705612153221576
-5.727111258308778,-0.10350440642869506,11.136478926982642
8.278046013031448,0.05001360850517133,-45.68874193400553
20.8273644394663,0.07419867267458789,-27.50793270085135
3.277875230471883,-0.13269646330796767,13.360965378864408
13.060368919853062,-0.08055593855230059,-53.26978310192207
-5.497439660962577,-0.20264889121357396,86.28649676152327
-54.859896561804675,0.06895443854623456,6.944749258946647
7.54751959541761,0.1817421417307145,-45.54392612399091
4.927207286251292,-0.0009387777696842839,-69.78034143421563
-8.224944767181947,-0.08649636183970319,5.942732636909282
16.570881949007372,-0.1593827575532668,16.174225284812795
-14.949939773401383,0.052595400440934095,91.08308294637902
-7.732008895836714,-0.03685575623971946,14.914772128346762
16.846145383442384,0.12823501287374584,11.298295052817984
23.02543334364048,0.06776218978315011,-37.75388883637349
-8.033137555900757,0.018960772658557737,11.398000619903542
-23.659680271234432,-0.020268814151611067,-12.451943052799502
-8.963713532491923,-0.14744850863781814,12.540372438618757
-30.23729773025662,0.08265997009505183,-14.57310827625738
5.404356157376487,-0.05652817984175649,37.67094930383878
2.200321240617347,0.028621950136045606,74.30814210205111
-24.486514094014005,0.020303498733759296,61.55312902147091
-9.866048758079849,0.023756575807046657,-40.47148410061997
-0.19313862154724853,0.09423694093041682,-37.33228690813756
-7.595683933811998,-0.01931632825931712,-9.891167747541418
-15.45658686539078,-0.008031875352150003,-25.906512806554062
16.705527611223577,0.1082456339807074,-20.387524562562746
-4.1880200284456945,0.05473656116923097,-5.59918038037919
9.119497964789282,-0.08992794743499608,-56.744591624987294
6.794418971899771,0.11346377024393291,-7.485471716557569
19.062944671469573,0.05684727150848608,34.46011683875205
6.7330869021290525,0.030682608865331047,-39.2862267579308
37.400211328750935,-0.07790541222629199,28.67051144748594
4.653170493766442,-0.01831673651016942,-31.858954322767964
3.0282547473734702,-0.053101831612864185,3.0943023256491333
-24.28236662604335,0.025121539699082557,-39.97744587631039
-4.187197161784268,-0.14733717955293466,-50.56448155623687
14.040385578644582,-0.16708760704211786,3.7006733152898135
-1.8913625779630676,0.008112870906070156,-47.828250370327616
13.112845531674097,-0.13219733895620084,5.562125249070759
4.10072902741475,0.048031093351138275,21.811923901062205
32.87059408946291,-0.09358190983975752,27.988112353342046
-16.17631461495916,-0.06477973771028861,-53.816733108488904
-6.291860678555442,-0.10950425241445622,-10.829885497258825
-11.73296792776458,0.09010636667015369,0.7516527704806295
2.4573906168213813,-0.0710951115004725,22.78830829771661
-21.970756453289397,0.16366170329782723,37.754681535596305
-20.44290893441182,-0.06989180428085015,-12.16692666225262
25.071986948430652,0.028989885550170957,-30.61497981700608
-63.40744789179833,-0.1138380222840302,-16.127768922030718
13.750871550523788,0.14286559434701226,-6.092245647444034
-3.6553454422639393,0.05954268262211981,7.352098456638233
45.43326585997264,-0.10284751659881051,70.13087145924183
25.394447981053116,-0.06397962791414506,11.952182047590034
20.304461910540383,0.040830577572120476,21.809868677284893
15.719174371245717,-2.979498652730004e-05,-27.131850401472942
29.52704591708706,0.029439818173220524,11.087716891190226
1.3433782856179537,-0.08056963916829764,-0.7197973628866282
28.746449453807394,-0.12684971819933671,7.272806596721698
9.837764156005532,0.08726350023356967,10.64774975565661
-41.10442367515519,-0.0335249116149605,-55.96208541597608
5.9447169722334685,-0.008270008570573483,-40.93239897171584
40.10596176495301,-0.09426957410967772,20.287093848648254
-29.36073455479601,-0.1453141682291119,4.787550201182325
10.523912133474411,0.0473958542540196,17.239314409181684
-18.422846925856472,0.09082756302828823,11.56767476115772
-6.855508212563937,-0.009057969993117046,58.36012427072756
-20.082910021521055,-0.1310597480283501,32.91496449014467
44.89003006538853,-0.05486354584414206,34.70978362506613
-10.488783119609824,0.05313480604782265,-24.25223342752477
16.78476599033209,0.08173763121803979,-47.47977465819101
28.760185630035412,-0.06178204994548553,-42.3911958250917
-20.766098623413185,0.0634110087095868,-18.335984217967642
3.253000528954125,-0.0008530526531181558,12.784211995675177
-3.4634515044959207,-0.0778824902484718,-38.53437414291814
-46.95643494613239,-0.07142631250956853,13.817917279431136
-18.206959763887824,0.10926099329597666,90.48999752548352
23.30614874014346,-0.029564989531728526,-40.755278775498425
7.7851124741235465,-0.021884304219271518,13.375077160424853
-7.6201210585220425,0.1012040700895614,-72.6230467929608
12.067274977512486,-0.006120065347998645,-45.21835506868367
-8.536044241385238,-0.08710227487083623,-32.319519335140726
22.57891357894717,0.09436123837681676,-21.681266353870097
13.107502124206416,0.011990146301480103,70.5725365177725
35.390939822392895,-0.0809467506256183,50.84492334633797
-7.010028995232784,0.06818560346823731,48.930094368256725
-2.448870500292764,-0.08549513291565414,5.928681408340455
-15.12737353609586,0.10691312486282784,-18.817157570617315
35.29945484512786,0.02780667819459929,-38.927568837592574
-0.5728111966901989,0.12163860950462815,-77.01199706624242
-10.455603613393833,-0.15455735583432417,66.2505308435893
27.34700338936017,0.025147893570195326,-16.754975368912525
15.804103565044862,-0.18378211023163435,-39.61658767723173
26.95330718554322,-0.08028664297011337,66.4015865668357
-5.579918129618928,0.08742551748855665,13.779154157154325
-5.746493489237956,-0.07679289102902283,-12.31338023099471
13.77640817290455,0.013718895198070045,57.67039312561009
1.5965491092934756,0.08521959693487346,6.753602413857079
15.424595232775914,0.023901429249618533,-1.3444491296612129
-8.912083757982899,-0.027544287229892817,-30.245718271945712
5.279391731979563,0.02607521384210127,-61.920281764892955
-11.248886895849406,-0.0389928684580525,-8.434976513244603
-14.006049436327467,0.11779654668493711,-35.36160423617666
-9.574626124588395,0.0409368373437372,9.324152095809735
-12.704085744047632,0.06443050972623507,-50.97358242929256
19.85694396585554,-0.06975428462411921,-4.503500141213585
16.025473299546015,-0.09832889166353345,94.35540259420887
-0.13596774835976783,0.015778358871013188,48.06445090479792
-34.37901982045039,0.036034240051322365,-14.486444568878255
25.13286340938056,0.15281895512953647,20.091828527902887
11.764252521868112,0.027196973722754272,-7.194968268098596
-7.994064831592861,0.163933437799239,-2.7487353043310674
4.475472395553991,-0.062495158086219395,-24.66490551429022
2.9830988263044054,0.07857319244990407,-29.403236446764165
-4.505900690751326,-0.13424194749590818,-4.727990742306488
15.138493263923124,-0.24654282690111767,4.918347370321621
-48.32024977356533,0.10022435992481829,-88.5130016438601
5.124134753294143,-0.10181169630745467,9.102317899615713
-24.356281768622246,-0.0395507752047569,-19.70761970328215
27.754187849439205,0.06159484239333018,11.133060881010127
13.20427213321419,0.07456480810583824,-15.59663543156467
-29.5468806188339,0.07241708498316803,16.911979554122876
40.80965731570277,0.07462397466126508,-15.967091518325072
-13.176097173295783,0.011928029914459879,-33.055754698534734
24.018205658850825,0.06453626516889485,35.030843840575535
16.569558029677612,0.00043896137708718204,33.9476101708057
1.8594792845941333,-0.11638618037260261,-15.788755518389943
-4.558790883797002,-0.008207771760309209,-2.196717996548675
-6.967429353401452,0.09226860560123004,-30.83419791284519
-5.307197893379759,0.04678854333691071,-18.8480201846397
10.409287215093933,-0.07548957446435203,46.05423566681157
-2.7220629459457,0.08602109073731817,-58.26127463706429
8.525580720407364,-0.05933101532438905,21.68107137847462
-17.1323246305543,-0.03660292633648689,11.342358343384596
17.004468919009856,-0.3429749304663164,-23.959826940356024
27.872866625960683,-0.14497828083925943,-8.331719301108208
0.2364112794907476,-0.09414998248484654,26.25114587214601
19.537610065370124,0.10305594806657883,1.6124737380689478
13.32660462031546,-0.05217807759921034,-24.662641526184675
-17.90811130752749,-0.0006226049231975373,-53.257384043128056
4.85796190901922,-0.0268986992750625,-17.13382558160611
-43.01821558559312,0.13392185393325104,15.74966447364859
-7.895539470009211,-0.11997660016653688,-11.099930858433623
-7.6160430325055115,-0.08391573642737984,-45.49467842932412
-17.034122923783798,0.17348559000116173,39.489664882337955
-3.2484769125070074,0.030093911249239737,22.353166931648133
-6.554907906758696,0.0023446966689831803,30.452679952600082
9.410302594203957,-0.002641797734505695,-8.206748643380665
-24.82218969109816,-0.08003765802105832,25.66593749993185
-25.256265219570047,0.07100089338069888,-45.61449041819828
21.730951326323616,-0.013936795297089778,65.7692423088989
9.774860065446756,-0.009251271936559346,-24.903162573331684
-0.49751087935194954,0.016135616776122668,39.15313260688242
10.658712552957724,0.013278699873044905,44.78293756678893
-7.748289920960596,-0.0020817929804610616,0.20056835685982685
20.141378089671704,0.024162836674249802,4.712755696739219
5.609440396657056,-0.03078660566816003,-0.012027659788532565
-1.4986296805325159,0.1275352428897416,38.713971485666065
-7.316818482978471,-0.045341347400770116,20.188792257534274
20.0057427069397,-0.13931603200707776,47.51897567790714
-11.993149079387447,-0.07015944024756005,-36.94242737534199
6.149939513540889,0.05401344172933839,20.34839161732577
10.550524363046192,0.04698912896255607,83.58502801652102
1.5410346232037133,0.11327039559727987,30.21609376378275
-10.753491508625299,0.06889695634030693,24.91361009163661
7.141776161887239,0.07852076502398952,7.40038045714083
69.01475769215881,-0.032529049184504936,30.49287992631012
-7.234785284892719,-0.10258381288849357,41.335001075965
-0.8563200075385945,0.04516411347083013,10.049515730715306
-55.25865926190568,-0.03026010432050946,-18.380905173293574
46.712730745911784,0.06440037892794813,-50.84906113695817
7.733143243949766,-0.05992575811415484,38.00691415018831
17.59698595180548,-0.0695990216499068,5.2443209872797905
-1.585578518718407,-0.060221850421612655,69.5381918817335
44.989499364025775,0.03733516112995121,-16.68549865653962
27.374186127765054,0.025353826389301455,-22.524849368118538
-14.794768855796205,-0.04191322489222499,-29.0648429438445
-8.083557570734923,-0.2024930931144664,69.92017737942496
10.131215516863524,0.13455430477111355,8.145112038527374
0.2980122053933538,0.1577289263196798,-8.459081267050816
-36.771289232404584,-0.01328929646335818,-5.884006418246017
28.302831074312213,-0.024407861706524394,40.68362153288304
1.8987173170917053,-0.2332034086053798,82.65123693759386
-14.382200672586993,0.12354275037380982,46.535142383963965
-7.017000021713463,0.006528012327052134,-15.171146754631577
25.4270595611907,-0.06838003854360461,-16.81011500678236
21.75512047674549,-0.05091212477729772,-99.12014538587587
10.933028688985342,0.01620579991872162,-75.80481169502167
23.884698436397322,0.04848412351624917,-2.1019234889116034
-9.914306951927593,-0.12536239795065568,32.058874407152025
6.748080797217381,-0.10894153571795627,-0.28178023357409904
-1.8597172259266173,0.01432154896487754,-28.96569096906869
2.620515510938638,0.06685389883011024,34.829386038680006
6.6050638142435405,-0.076655236164544,-40.75134792754896
14.852159591413383,0.1039330577687109,-0.4597263077353985
-22.333007886600562,0.04445999882402332,-29.674161839050615
-21.86579797878278,-0.07593058999137914,24.93447067461392
-7.6839657665691705,0.05230930893694113,41.740821663179666
10.095781151157599,0.03148087567942107,-2.1630057738565402
27.846138457190417,0.10814402192344721,-11.110862492195068
12.394327716555809,-0.020944164493754195,-54.49460921069459
-6.305535832971062,0.20903051470731007,14.270769882242728
16.00357759530269,0.017859909975801194,-40.18297554079696
-7.800570961923969,-0.04925545909053072,17.967741434685994
-8.277838437758566,-0.121763340847392,66.30715866235556
-35.09308704531879,-0.0553562571698448,12.640843249618543
-10.326135371205485,-0.16266849831090915,29.711293355116982
16.001761780651783,0.15515267300990734,-3.465146303739866
-18.3596069084633,-0.07352565601104259,-17.585957345928808
6.363232903578323,0.009062012277861718,-0.48426022631785465
-16.922889896865733,-0.1344169683025475,-18.32771569753365
28.412574318050122,0.0584199260435182,-61.481310074017614
21.526980474118957,-0.13150323367233416,-66.6074730380053
9.031339836417088,0.032518334625946756,-65.6889763341
-42.24719430021701,-0.03193453817057133,-15.217966014734404
-5.385522048970084,0.12037450496099683,50.022298670335026
40.017409255944266,0.023439462014582146,-21.166630430839497
17.783700182352217,0.016199284579507495,-1.4090952571283344
29.377328180243403,-0.03600332482302745,-39.747329038911296
0.7245544970366656,-0.015651894450613362,-14.325060495749174
-4.329850832478545,-0.008813441695607051,-5.568547537268125
1.6679006809723669,-0.29421640518567554,69.54822271794951
12.656841528373635,-0.009527958971876277,-4.601692705439623
-1.1641437934201058,-0.044584282621825524,15.390004533662944
-27.12480297757276,-0.1159192738569334,-2.997689402832499
-1.797064723983416,-0.02694695060240453,4.551912781942029
0.9400451308787225,-0.11220484420454846,-52.250449594230176
7.246250579364818,0.11570840276802093,3.9398714771257644
9.635958363595417,-0.08367885880861065,-9.543401642286176
1.364775311273187,-0.26206261778769074,31.507178287154506
-34.04901299088066,-0.227073367289265,-23.19006734039416
-19.61226471903828,0.0753305156338461,11.014100071546697
-10.159527815619862,0.044871818351639975,-44.02277187100993
13.909929458025088,0.1324677888843636,-85.46846221642423
-10.11162090422076,0.0008666202439758233,11.032397084102055
5.3561388429802745,-0.2283427836884273,10.80064350720572
-5.21009574657592,0.1172109922055391,-56.10915732845706
5.073908386781541,-0.018107888692698273,9.9743407755077
4.1708004524119175,0.04962171750321706,-32.01449384000967
0.2076974943909801,-0.009334398049652725,3.45102987950768
-28.08275817804593,-0.11288048082411833,-74.3324499809198
39.51839719223663,0.04431586765183072,-24.298583045834313
-6.909561211462043,-0.0483930556126517,-63.55388274671442
13.485548167004996,-0.05294557013320699,-37.247321670365515
1.6562217965703054,-0.0970478412882444,37.005141704094626
13.456356505856169,-0.04061440824073448,-44.86271993650781
7.532005693896063,-0.009343269412936726,-13.558695048361907
14.123204148773418,0.03611391436791352,-40.95259584345045
26.9240097622866,-0.021815505409071994,37.202182343060244
-42.880230187118244,-0.07449344019320174,69.35608139451963
13.41547900805056,-0.30603654203537484,-14.948168103422015
-17.859864144320582,0.007497323168322741,12.233264681114031
-37.13545207936402,0.2196887053645203,0.11990812379417304
-24.483049928022083,-0.015852419675318814,-34.60985727683017
-10.950378147173392,-0.20929986963262381,-29.116788710274257
-39.323750275614906,-0.08264386139376634,61.12678247407487
-15.45141812050635,0.05176512586223567,-17.296172120018877
6.138324042763782,-0.025265969164926374,45.00556767143182
15.823930658446432,0.23110201826738708,8.654718766245628
8.593541902261606,0.07563298485658387,-35.99449115669708
8.402860242065826,-0.025969642515176514,-18.00756753409931
-25.96338814921289,0.044321428732460186,-47.84787415211403
-18.008818176341187,0.10051102181592134,35.02441309999209
12.692503530154617,0.044505776063103006,-5.915570889002771
33.773731023964245,-0.13801604053239153,14.920578216890592
-8.589477316164569,0.07796137646348211,0.6913352873204225
20.193846492140462,-0.00333441153270792,-38.097986549314726
13.411350447890092,-0.03576309013771897,9.854363010592932
13.326968981265676,-0.12859561031414687,-6.061324492675296
1.0362704800643545,-0.027403288200787336,-2.0734162422070153
21.001149122869258,0.031812206176466726,10.855321767447872
0.328358684971485,0.009909255535097522,-24.604910525955518
15.126992061445048,0.030040540785354425,-5.055200184543755
