-0.01583362244617836,15.248182117027202,17.703411899095247
0.12715257043147518,43.06083466645031,-21.243959228638975
0.06628094084345623,31.496264498543244,3.567588266654031
-0.051500964156221164,6.441615929434799,-3.944856892105293
-0.02262457352754461,-12.729348466829508,8.436771668475041
0.05788096073770598,27.237540508552115,-8.122627371701306
0.18736929681382558,-57.76272621059949,-17.14927256535305
0.048839994601212175,-82.64575526603036,17.332831466661144
-0.19321479692769591,41.50530983858714,-15.364227916107813
0.2376405309832077,7.589403626735861,-46.11337626795698
0.06308060002031599,-3.0988415393767577,-21.305644046902337
-0.11399123663622762,15.617487510257872,30.355220139770868
0.03907393324760037,13.81128497317263,-15.462261829464811
-0.025744598441868966,-18.26882986390045,-30.268863279561998
0.061387824517112326,21.760614234285693,-23.53391708937259
-0.0549379070814425,38.80836630805939,6.737275304682759
-0.1340376028330638,-42.60293209462522,27.4070973924624
0.028471388267985433,-16.440247814938058,15.176392895414615
0.008790560656598351,-17.72941797488288,22.964745148272225
-0.09312342808924366,-44.73754029101242,14.149874697901792
-0.009972620478412682,-1.0022481286919673,22.05697380607434
-0.07088608565693845,30.656790995450194,33.79762712172953
-0.07516793838876862,-1.1876587558227265,-9.558965907288353
-0.021287994177535425,13.868312390930793,-16.77206158622249
-0.020299792338438805,0.8503087661173955,21.711399720842945
0.21282903849971777,-3.7548878193745336,21.944227257303204
0.021544280071587072,-19.68199159402468,-32.16037036357201
0.1762263707049775,-13.442295490954825,28.73689981718271
-0.009085074278174612,-54.21192446968948,-14.407017066098955
0.09700196705212599,7.0479895720647825,-6.942637344436315
-0.059333863179814234,13.726013767227164,-12.474375896826086
-0.03085453268947462,-15.93674021938601,12.451821370095413
-0.06436881327466072,33.552939516597945,7.605706790808252
0.043411322107657184,23.589473417624053,6.111115787327082
-0.00800789368678556,54.47473354589184,-4.298723701762405
-0.16564573183650444,-56.236991097319965,-11.298144022508609
0.04108397133973557,-26.031570550335502,-19.76274126419983
0.09209908675340273,-1.3285148078976279,-22.997963219218924
-0.005660863181134348,-26.428610961697757,-12.734838161129442
-0.09772047052552332,-41.44869604670038,-7.4559245549765
0.005746091260433299,-19.60801938958141,-32.28665169642046
-0.15315784402987598,-24.49925816270625,-14.140913435070434
0.06207124014753175,30.778724392274693,9.961569320491257
0.004287572378393115,28.462705384515395,14.800421147347416
0.10971900213062574,26.173801727295373,-7.810748455286182
-0.10539825979219636,-16.902904041420232,2.654353267308673
-0.1545320643626087,-25.490028555079533,-12.370522809762152
-0.053804953398174565,-0.4392648699553238,14.658902374587505
0.14726418291842105,-12.054999014231724,9.643183231527328
-0.17833289911957814,-17.254621283674883,10.00577365655283
-0.01276947253074971,-3.74706090937305,16.508754476615344
-0.14437771562222318,-12.093126972020176,20.840242097156
0.16631147580457403,30.293392814727067,43.34284695632013
0.022467095978200666,-54.70757283763555,34.46963511582309
0.031851412898215324,0.18753908925036294,10.216175025518341
0.09512217205817276,-25.94521239457532,-18.934186474383043
-0.03968942471234206,7.585585713917654,36.754084854690475
-0.11384348257854889,-17.737694680283045,0.15136042622011328
0.07527068663132608,-15.29542866952914,-41.4084233810826
-0.07688345395913822,30.331373201283945,-13.093662293401966
0.10159451395975852,-40.5310028855184,-8.208540470977916
-0.19877474603015932,-11.836162528376455,-6.1192178741274885
-0.02110162931032386,23.180638570270666,-3.620810141380595
-0.1654015992763256,10.649226541657566,-27.289832068621863
0.15559954907556223,-13.229173390823465,1.03601411169126
-0.11883141322501636,2.481938866874301,26.225807633402415
-0.007165305264391429,19.606792700291066,16.95762154596942
0.024719262655234747,25.919397380114972,13.643777616302355
-0.05809999923829095,44.509564210618045,9.427666975747764
-0.07197011360985732,43.85507125550522,10.069478606727099
0.06933915747579886,8.1827965523858,-19.52860314353298
0.07691698680369234,-14.169928463570606,-18.82297769723255
-0.08580467004194303,84.12276085651814,25.38435765829282
0.05877890341482043,0.6489663739389383,-1.7723770535951284
0.08555821807087416,-7.277742492436861,-18.453156346311093
0.1105546084656972,-26.732912282159447,26.948295387791582
-0.09737050641177172,16.562632869617474,1.976878489440291
0.07099242104236911,-12.727778350369462,-2.3964843496225647
-0.0998201459352443,27.27336708808946,-19.242360443325534
0.0014199297892705902,-35.709290141934005,16.426302454218952
-0.11212483851221972,49.96075273454917,-15.889348034963662
0.09001852498642697,-1.483530882690192,-2.5474321343607143
0.12569406641110034,0.004112524632833991,-25.351556741804202
0.20157532394798583,54.10956877049575,1.647437913687679
0.18969581256663548,7.6782669541892625,-9.441417632751373
0.09670510607466738,-0.8365332014445257,-18.13782921124591
0.08837979751488549,60.99755791767833,25.70805867355827
0.0023740383807243745,-21.107444653965143,19.058636579791486
0.13400623067419323,17.93899441022743,17.22972328472859
-0.07787799380370003,-5.698525574311769,11.568035941360028
-0.025524620444248282,-61.102189933201416,-25.902370680240765
0.021217434789907414,13.215914634652892,21.83233451730321
-0.079183483288502,-16.575309391426625,18.012458217292508
0.20033381634244785,9.296862400441393,32.06815839343331
-0.05367677713552768,17.747418765248366,21.979057088734525
0.07575511850842866,-22.60371370271026,24.283110601048374
-0.04659511688217445,0.8714158843808714,5.7647915732396875
-0.02313790780335516,-14.245615347208748,22.54377241927572
-0.041866613366155665,15.017804263380135,12.419737278677177
-0.20625385736147034,-3.307680692690832,20.974435040086664
-0.09201701266814638,51.77790616523463,-5.049800847967308
0.0729770872437835,-40.529540262336184,32.57156708416393
0.03868972708453118,-9.903900414562818,-24.398826839792207
0.09019849921158773,59.43297378308805,-32.746877282264556
0.10835658566503986,6.601664426017232,6.988885168731845
0.04268903556870679,31.785679183371567,16.08812448730177
0.22058000140868683,-5.489278868237386,-19.92366865100356
0.04428011286419569,17.991865907686872,-24.888766743568432
0.11784876252300121,47.26446599646615,-12.175618941327178
0.05388229425835392,6.274996307828068,-20.68690326031178
-0.10859409671615722,-17.317856429816096,8.806204679835531
0.085011780414083,32.73791127783962,5.185292340691589
0.06747726380749258,-1.2135022981930352,12.215763120046859
0.10639334124413512,-10.122762758802725,5.415631262599952
0.0271995241968718,-10.846786802843638,-16.376192385135692
0.0007318739410004181,-21.283089922072662,24.041228930906023
0.07570921933445274,1.623412555135114,-35.4836397279349
0.0849340918878554,28.403745591929958,-29.034606726471527
0.06007403016955712,16.39910169616964,-37.24851338251434
-0.012990717931039812,-23.704624697315815,10.06658597222502
0.0768181489123193,-6.670993250872094,29.10750068835074
0.10899889187758112,-22.485549108232707,-0.5992410759782941
-0.15703647661013787,-13.22510092007066,-12.481322820748858
0.03743799404806686,5.200983199241641,-9.063935097761174
0.003420565233619598,-36.19372640171092,-0.6170615910990591
0.011526146917301342,9.237987713227692,8.861794491646982
0.15195178712492188,79.4904498499204,1.9059516654588595
-0.09509919261483023,22.44251347778475,-11.450713531085452
-0.07824420991758049,-8.65985144850396,1.6688965034560974
-0.01987512928234875,-4.042520638799649,34.92458136260721
-0.08467074246183544,-58.51093920508665,50.6351440143532
-0.02971233434587154,11.70345670117666,53.40075600134558
0.03784277264125029,7.210445727850744,-8.681984935384786
0.10946907565286175,-80.28066664788307,30.87325403181452
0.027002456342007642,-24.12550988478963,25.112180712274505
-0.06902346881678022,6.365688498600619,12.595569458552143
-0.07058390691419289,-13.901132878331781,-47.18154145562323
-0.015243525908916583,63.454441079381866,30.02738106317265
0.1280698443270787,21.689391542451013,-24.429888338394537
-0.12363062397990927,-19.11145267148318,1.7819144108081486
0.14686247494300458,-25.658206691701544,2.6069800976932527
0.03348186003125891,-5.8758357952868705,20.430838308336874
0.03288108918381181,3.386609724726738,17.150927252980484
0.02437597867972309,-38.785115413378946,19.607335025737914
-0.026382735894353138,29.546001789026406,-18.369983997904033
0.06974277916291834,-19.929761537818568,-51.15513511100633
-0.14269562395740756,-9.957136676345485,-21.9922672236136
0.1168172282915073,-25.13212790394914,-31.4492004646193
-0.0745430690160021,-34.586266036099076,-22.07109655106304
0.008380994491610666,-21.622514627691956,-14.732443119450975
0.05473616609657498,-17.91368204889164,-30.13687486323033
-0.016916256633430573,40.292535835725815,17.890045098923636
0.024227921393453304,-27.049780415072803,-3.8099573540345744
0.06620894748704965,14.242234146242287,1.8026845178154285
0.08236129278360423,13.534050369031084,-2.6762239143118083
0.05681317666732111,3.498849458817211,-3.924497175824124
-0.08912808916391407,-1.7104320071710857,19.252078839488156
-0.09142873292776034,4.6672025051276265,2.554829438817388
-0.020459891647352676,-9.663331580766476,-7.668852942659533
-0.03488091907440471,-51.765857607056425,4.588800960400626
-0.07591605969323172,17.622325598135394,-5.371933910554025
0.08258315830201352,-20.03336387296018,36.44230676516614
0.02858932094588684,42.264436678522685,60.951605930050185
0.05709481929888083,-2.3713804036579287,-13.021669144010392
-0.08818432721249295,-13.336682315788343,-26.61034427599672
0.028740480754753397,-4.384863850284767,19.33794588674739
0.04141932619486327,-11.419338390774167,11.68814510633198
-0.020477065719180274,9.697010145575305,24.383109677998426
-0.12912221216789252,-49.320521277314256,-17.897310369630016
0.08621158765066594,-28.624336451788388,49.70585568240854
-0.1143909514909372,-44.50026581553492,-13.828995323273407
-0.017885965925177702,29.533963019286908,-17.85819085161751
-0.09202313212376459,-68.76676717867892,-19.655719955719217
-0.0670822738432273,30.526589785835483,-17.211383395271373
0.051919707117987435,6.1181073089972005,23.314418582121835
0.01192100205750672,9.770893702800878,-28.586081861950507
0.11520987066460996,-59.010957709479456,-24.728756384273627
-0.03310747463736017,27.783960498568714,-37.73557243876934
-0.0066951609491250124,-7.762941438809239,-12.236868878261944
-0.0389428217214828,82.33453457999309,21.255172759890648
0.06314665537382856,15.29418510267475,9.645946696401737
-0.0552949215581458,26.75226009188076,16.608616181987273
-0.04869908576939774,-14.4777316068113,37.19053714393007
-0.06770388966338282,-14.521895947707836,-13.383473172179222
-0.34822196507978975,3.485853451274482,-14.735425955043244
-0.0697293375752972,19.63570744460152,3.082763010863748
-0.10364035023936645,-52.424749662701565,-5.021621608380281
-0.03368498086299042,-6.898699844195779,22.286581049671497
-0.032196067584636286,31.15771548599303,-4.229269977706325
-0.10691534775415286,-8.660999336926793,-8.966596217579891
-0.017215680270879104,-45.67484904277278,-21.70872232238856
-0.18727445013720045,-43.5136682240803,-4.770258623067303
-0.00809273430641969,35.40533891019826,-26.63415297644201
-0.16478584111229627,-13.294981999236409,-28.76655864237251
-0.011366059743384336,12.727031346743471,-14.369793549026715
-0.009975208572480293,33.62831599557417,6.570079526227838
0.19213028777792063,-24.54979598908999,18.21630575888697
0.08543745888125015,-12.017284096198466,10.120628789082105
-0.14129489713664958,18.231314761119755,-29.33896346324477
-0.09335055893580767,-42.699513389856115,-9.123051924634018
-0.05040444520262366,-10.428696375124897,-28.808422155379922
-0.16122716697175488,-63.33463243233212,43.10243788587109
-0.09443268787168516,-9.69435273952192,-21.35366830591569
0.03086181391382239,-31.779665750515814,17.69325338336269
-0.14374114862920737,-40.419514379603626,-5.091014138087916
-0.1250600801728089,15.472367797730533,2.560664543401556
0.011317612314709749,-9.920689999369621,19.10216765992
0.05828359192330525,-58.56167240049174,-19.744585444503958
-0.07480069761718774,18.72835715574635,1.7503711314456118
0.027717017484337043,-35.99459073201239,-34.664103789120354
0.0232603697600872,36.199682858709906,-7.711694378945393
-0.04815363380831447,12.865405054342398,-5.172550041800095
0.08857748758951872,-23.624523828814144,14.69818765264882
0.018724728059364714,-3.1789876737555924,3.9458711782622355
0.08933294828395683,34.244456217824286,25.729538788133404
-0.08347786192174617,-56.812208991980796,5.35040970742088
-0.06677414445833497,-28.204786291531715,17.98363205511993
-0.09439867130833374,0.6160352744129192,6.709631943138249
0.19129506668478488,4.543577211581548,-4.742035279293778
-0.02126629377627827,31.29275611121836,-41.89656942673849
-0.08928307896103263,-47.288648863865035,17.698250671767934
0.13758640554921603,-55.13017602459841,12.389587946358445
-0.053019612335061465,-28.50016002069002,16.653443480257287
0.11374208499698656,-5.569589222354193,-0.6651839972962091
0.06083316840634611,-23.456763925145278,11.84328135387525
0.003978923565368663,57.58194269534799,27.408770269675937
0.09770807400136738,5.616339113326518,47.84843977882916
-0.1705924633965336,21.616011093174873,30.5485279062528
-0.17268761241622968,-29.82717443535738,6.365774187173479
-0.05589914408728264,-1.3473406657329026,-22.97973735559951
-0.10857040770069792,24.674849829924515,-7.987081649306207
-0.03513153136231238,-10.257507858672223,-35.42272402601654
0.06210387854780121,21.249768353101842,-21.81706278662756
0.08538429095736083,-55.95976145586879,-33.286574028513705
0.011902518602917902,-25.99279984527426,3.769308778051357
0.1761638493244586,-55.04795180507577,-21.267056867857285
-0.10609090936838073,7.667319424407739,2.639723924673378
-0.19357256982869406,21.902177903849225,19.866086844839877
-0.06349494203303695,26.83430387350084,34.10909565800812
-0.0703064193991882,23.410383636243722,3.9828751821473234
0.14999148393191084,12.5501250771405,10.226888510900684
0.044345452305214125,-20.681874821704564,-4.085285251510353
0.04305693425227136,14.604524078344419,-9.535871100817564
0.014488884414849296,0.19093947069808906,27.38419982771697
0.0501230014342881,-9.099310915117204,-30.08378341097817
-0.1603550379024828,-22.907273179429037,16.224386171809986
-0.04499243988082247,-23.578828606584715,-8.112130465329649
0.06477856434097816,29.147247526343243,1.2708555126947352
-0.007790745074144827,10.862607119188969,1.9619378120687923
-0.041043565353957416,-25.050822947715176,13.49244966369296
0.03113186630270213,1.5606892947989408,-3.6333376275534386
-0.06315402370540323,8.766219846610138,29.689316902769818
0.008975860349928288,34.71521121902953,-13.44279812969405
0.11202896615753762,-0.3933032942692898,-9.78179792217372
0.15706123627657154,-17.47089097028833,-29.171387056447095
0.08313329860840286,-13.375566334273374,4.180479397364321
0.1744483797575872,40.79075657508376,-22.47583597907027
-0.0017347190187746214,-26.170504681682296,10.213990179728707
-0.02446227743703874,-19.09354797058803,-35.82486575443624
-0.08904397035628366,-56.53481840363908,14.871096274023275
0.05796640751996238,-24.41966686048847,12.688698744012843
-0.05603839471268379,0.14711964959112672,5.908895353698674
-0.10881631375923076,21.901751347205998,-1.9640778438487059
0.07325932228038878,29.239280034043645,15.876530036224972
0.01561966851266505,53.971775926793974,-5.871741759016284
-0.09826213593347696,-45.106212706982284,-10.296770426405558
0.009415330035131647,3.352237948138326,-22.947780406062975
-0.03663417497292569,35.508774565908205,40.94202508651424
-0.012415035987271575,-36.24429399015162,-5.403885072374369
-0.30894487069523585,-28.134146036623065,-13.453408809844964
0.006129778848159046,-0.8390865336720545,-37.32265015082113
-0.06317870782885775,10.185471300686634,-6.468606990627345
-0.08454221004222479,-37.367713231997776,-2.230700899189611
-0.034435167672353266,-38.65754957019126,18.7907241372503
-0.039729748246955646,-10.408493726125165,-11.667489871924843
-0.0067900851217527845,-30.88612771063615,-34.28105012800856
0.05434762918110162,-70.08662379724193,-2.37051765964375
-0.23178822362491347,61.07502144358735,17.543918138867348
0.014631416095660052,32.792364065970354,-45.922679198441266
-0.1521393504401273,-4.371945338203144,4.944416158741387
-0.067183882519602,-22.68746568189788,-14.644588523714797
0.09186120559893102,36.73106878943964,3.6500216723351233
0.07307346491269533,9.637386902706462,37.05295583596563
-0.02934253495547154,26.816984692102682,13.335339005232443
0.12988746973351648,-8.16532323606319,2.9369165967328277
-0.02405850054660303,-43.51750815261143,-14.207571413489038
-0.07433984404222946,-11.686287003482743,-17.145681300118618
0.0399749680344353,30.626061904149392,-27.283730636652198
0.08014594680380038,-24.035389004238606,-7.99280353163751
-0.21684544098651992,2.884217469046286,17.761981489988905
0.07283199938881327,-64.7755589278037,10.577884882176695
-0.020945491916963342,44.39283618080737,-16.103184366771707
0.12350408305018082,-40.712768871881046,-5.49375738472344
0.07268233911637782,3.5043492908369376,15.875825552977558
0.0799316444649041,-13.425132220720789,-20.018986432322443
0.03799231970575129,26.01644739530661,18.26574054613865
0.10041342699497001,-13.507252308661002,17.857597710744187
0.05394121597045788,8.857544516891968,-15.79650652695401
-0.05678529176363006,17.602896320164565,-31.69518281890012
0.017237041247798783,-22.621038262123633,-4.3612534094512165
-0.16560749511306505,14.69102291784029,18.57274488210374
-0.03961258673386538,-43.796659201740596,21.103470698654352
-0.023300800684344283,-2.830235281881548,2.1380350720171375
0.04671652286753175,-36.84532226000122,45.832044853750425
-0.06708080729663564,-48.99050527285178,-1.6638329694485365
0.14379284808190726,-18.321457044078766,-12.925495803086285
0.10013015445697244,52.864315447898925,29.163305594228596
-0.06043735312589876,26.40239793860032,-3.994229484169813
-0.04652115965141322,5.217297918541426,11.513198084902479
-0.040138121030196566,54.65220710668861,6.2961434546898465
0.1327199796115333,-33.995069968023756,18.876895120827808
0.01799695076423948,9.426551819413957,-11.327722433894028
-0.03450517854400519,-28.09707172931728,0.05127638701562301
-0.1024785459577125,41.225824568765724,-1.298856957099432
-0.09287166773902278,17.345659344049082,-21.80186801519875
-0.004646217911088643,30.2636416887349,-18.250677435208917
-0.05655160499802239,-18.30795163879854,-0.8016280887724712
-0.05975516676362774,8.068278734448707,26.822584777650654
0.044150009189077064,30.534533630748637,6.120804430396688
-0.041131741251364484,-47.81035783954742,27.812005894154407
0.21193921423485595,55.0705217094371,4.971555766854918
1.1683603015417317e-05,-7.2717248244465065,-13.304753323313868
-0.009717294886259125,50.78248601747252,9.67897885208683
-0.025660831785020922,-18.763447141182937,18.277204365015635
-0.03933965957303653,12.705514858744035,-13.238216544318034
-0.08563726080416609,5.478002092896696,12.28962382288362
0.006085491249149429,45.50169309719787,-9.32074248432311
0.06162354107346595,-26.3323000165507,2.989792271491738
-0.14412649235012714,-25.860635379777417,3.9312020353415376
-0.10842064475150598,6.441761874579653,31.19425203275906
0.002682692512032591,-11.583127792264195,2.288806663653099
-0.011501931052735694,33.56326142994983,10.409674674734157
0.0419825462374957,-40.41047437078303,3.1767996706176707
0.16132459038987998,1.5245497063115694,13.115402892192936
0.017625378756266644,-0.6482107162105292,-32.19611390452246
-0.11101233699421242,-1.0098383500918378,-28.77770749886805
0.052102704909888754,-33.89432457840206,0.048205407590735445
-0.12691356781886823,28.537597337373075,8.629765170624868
-0.012213200189862251,19.773729102942966,-5.017325045295452
0.01834698995055102,46.17551837771257,-9.583669688729113
0.07126955534567704,-33.84563423083128,-12.590153363941631
-0.07906836740447604,-79.13464915503396,-8.656637592427373
0.16970904706526613,-41.4421703062999,0.1654657846588509
-0.0474404053920288,-14.422767724051182,-3.8803830528793593
-0.08500167346987005,3.7549381552772996,-31.008854424755285
0.1904452545450994,-15.423179750747623,-44.05272008632678
-0.01531864813550484,15.739429543447802,-0.12048493504787722
-0.1012009203587764,-42.04392652521946,-10.24741719078106
0.1085475042205178,-0.07781456079113581,-12.043815023790057
0.13140570933427737,-37.64254537857876,14.005627073630077
-0.0789525971076525,-0.4849089369867934,34.748126300278294
0.05258780043892744,-44.58910468581085,-0.3590178135580938
-0.0011808973509810157,-24.253653028545838,5.426984432160115
0.08991886692199876,-50.52848203922285,17.81121746744413
0.06342494255956667,17.327283347265865,10.214909770274417
-0.007978479771838414,33.698327554286635,-27.242693094628216
0.14329097186515694,-22.570244783226915,6.4148694119487315
0.08118110337114853,7.5205400092043035,-19.078485835248923
0.2431640454646818,7.3950902045314155,48.43940795234779
-0.13987686077383327,-46.23898079972168,1.9813484198066758
-0.02591144843242088,11.836087425192288,-0.8408710442890998
0.11728601804719861,28.129237510944588,16.058506309348207
0.01667324210039475,-12.164835987188185,-5.806625364028836
-0.0841849896277902,7.963911251911809,8.507561978676188
0.04518463188498249,18.68652681455303,10.433521703224747
-0.061720122263124816,39.83983738024219,-51.58741145542918
-0.10740548409440864,-46.177239657667265,3.6658324209874413
0.10825906249478134,-14.049225422878763,-19.832596673414972
0.21627711438750513,-10.198344977977865,-16.156057018253986
0.048889884464064885,27.86945795907,-14.6612288554601
0.2882468868269016,10.483041983872655,9.405365830517967
-0.12244687011824527,-10.932262612126737,-21.582551364681578
-0.0021705711147260265,7.434103611649874,-47.46556631394492
-0.036315658617019915,-16.00503127053886,34.01785349565677
0.06161196369859852,9.043153306830133,20.226322380764937
-0.04918727036819225,-17.767614605327246,20.099409754773532
-0.0029860211729735037,-33.97087682846601,-50.13942781558811
0.042781071640007266,-37.582038721667686,-37.358121077443734
0.008381407064193687,24.184553050354697,-12.55462717143724
-0.03518916242217167,3.7259000358248984,-8.010914615289861
0.03477932475622396,15.39301477772259,25.247536371513725
0.09208309471569281,37.077173037753866,-11.404341725449443
0.08336935288316111,-5.881823625401498,-8.537870241588507
0.22211852975761165,-33.896054884029226,7.67908718429768
-0.112252637503075,6.262626344897007,8.134125075326578
-0.06823012678468308,-9.524238722067711,-16.17454694841335
0.04383994653738563,-34.118694668561126,-5.590730883291287
-0.1517775618338311,70.46007246453276,6.375771163401023
-0.051639999376438955,45.81102708604837,25.238810895623995
-0.042883781533508046,-2.1043239314768343,26.82440709752424
0.010940067578341277,-70.29101472560976,-0.5103781972248275
-0.08832487782017731,-29.12428107257628,-14.517980439315822
-0.025722371774348708,-24.094906757485177,13.104264113473574
-0.05193714998822943,9.855060477525344,-0.18459015239045304
0.07638396976928583,24.181633296707037,-12.239098149986035
-0.005124417109897757,-8.317285661810514,38.007534396924584
-0.10213161561489222,43.85606987786729,13.628230337206798
-0.013863538124781303,12.506505727876979,-9.68879546849779
0.042766206052121225,-17.03477217263988,-11.454246009720595
0.048229287542051504,29.552295811528303,10.619197884477456
-0.3230045096095216,-31.66373753062747,-14.45655007087716
0.10123159300096501,-4.435634843409417,1.6600797299179526
0.06393110877506235,5.09089965134433,19.283931978981816
0.12243422987216956,-15.352495341291656,10.559479126415843
-0.11368601399512386,-53.40694163638153,-0.3202471372865645
0.08307265197019653,-24.630925654140157,2.0271900375915584
0.08930116342229445,15.510849044090138,-27.929185598904546
-0.10035889055883135,-13.06030546396767,23.676048660104364
-0.10628002782380652,-36.369321235837944,29.622709560966737
0.07398971582506782,-36.76296631947154,10.186159997644742
0.00858039697350736,7.744588630647803,-8.963082534741641
-0.0872400151415132,-24.348925903983226,34.581286136971514
-0.09682063680405749,17.550255146336518,-23.035376791812645
0.16352459600654604,-29.30820297770084,13.343027098873927
-0.003845102730614414,0.7385414153421834,10.627210106264478
-0.12262512078982679,-27.803691806705235,46.28893869661426
-0.027035903623501664,22.692865048896966,31.570665310827387
-0.03641808219146912,6.138364603244102,-28.19958118111291
-0.09735687566823127,14.5574010925154,-22.1713696296116
-0.03143958262636382,31.449352815824444,-3.8070450688740136
-0.14548435242474048,-16.452734345403968,9.404878023601762
0.19997291372968085,18.69576485755683,-21.72848307480583
0.008006536014718136,15.675310480229495,38.643521807644554
0.0057604136134671,15.776718900688078,8.824344132625466
0.053215007022720244,-6.937725611625998,9.55952395568127
-0.028677715287921714,-55.604494141043695,-18.243108062713063
0.11228011667125014,-16.28844255634751,-10.941488372194932
-0.15411202248657424,48.72058699588668,19.263673810784184
0.2076716128993421,7.705336353200719,45.07092408418778
-0.0372347733510891,-6.579661741944659,41.71607457595424
-0.02906472943094278,2.7025544938090786,-4.672679377630128
0.06256506650202275,-14.553223626161271,7.695253377198092
-0.03958863886147998,33.8142263545735,-21.076845932698184
-0.038241295103263975,0.6052499579862866,-22.12689945355127
0.0004796477615955474,-6.008690122616519,-12.23271960922926
-0.03414461568252871,37.98062907243053,44.6246976736293
0.06930293405704309,12.055854859789607,-4.045191642857012
0.04869867072231833,-2.160674909142417,-3.9933219742241697
-0.022514017571860556,48.3208799580841,-2.563396689166692
-0.06046009341097622,-38.19624434601083,14.763828226398088
0.11792313825454626,-30.615095973350904,2.4212869217990973
-0.15031465027051086,-13.694240115495521,-18.738406801820865
0.03434105883018378,-43.98426699576972,-6.614069456061239
0.1815282272335533,-5.547409974024952,6.083048889852755
0.08867818623677345,-18.78893714223296,-9.602996078725717
0.003282662783994054,-42.629274044145035,-22.568768667695164
-0.0030472052054182097,30.060804762269612,-0.42946473914001243
-0.01101964522232782,49.24913756717955,7.7535264597741085
-0.1146179427101908,1.9327584610228186,25.57506417183604
-0.03217285411792445,13.676591070364514,-2.0400159234131507
-0.03880415243318475,-25.861476356476697,-12.834470967998762
-0.08700364663844945,-0.5668013406147373,11.76090064508921
-0.0037203596322237416,-19.16606965017018,-21.50666485471689
0.11621883629058403,-20.549134151264735,34.83963082921632
-0.02374008961640603,-46.958819581465896,2.5212453137386577
-0.0792995673338062,-42.426703379075725,18.038058713865656
-0.08976327049521442,13.290971998581814,-4.400899817401836
0.029972202923812547,82.40799696330868,-3.8686923291719566
0.11971990271999094,22.901875526124027,9.04265250113763
0.05792355090397529,-18.995338905478114,2.6247068837804557
0.06601331890493396,37.598972030745166,19.34405806721955
0.06399910458216085,58.20902778669515,8.48775882682098
0.08500557200355269,38.59240497136349,-7.385709607468001
0.15755437248910598,-45.87149831878927,4.0240974479447935
0.017199498580456312,19.72114082697379,8.799443917820915
-0.0012223509638325239,-49.58000113652105,-12.17659593682989
0.006023842500603522,30.24288955654615,-13.694576714027137
0.07961077715110917,41.23779765620417,-0.6383899276885858
0.014222396957358503,-78.65607783199563,25.098819827552077
-0.012253300938463801,-14.22432429610921,-14.655074680588564
0.11461526660417823,-20.96156924583542,-8.24962488704881
-0.1234274417018258,-8.190378867306896,21.64759569781479
-0.019839400440940697,-12.16119300061224,14.97324753404394
-0.1836502644012055,-24.761293438282845,-24.510282396254738
-0.2240375367781968,-25.21713559049007,-22.460463629101994
0.17920999241627217,-11.320973073601985,-7.654881754091987
0.10239475849001359,8.748905531199286,2.6813078118574314
0.052531102352407016,-14.00843442162164,30.756709902638356
-4.0436079705580464e-05,-12.12605435699778,-3.6268389645601378
0.04914049652234992,1.9279431260094566,-7.375175148996098
0.009081007570813152,-24.267553560777372,3.3537114548560787
0.09987252708823943,4.946673421113983,-10.177886937443063
0.07164404922933348,-70.07435178360566,-24.99963423600324
-0.024270121512407775,10.870645934199121,-5.836689449805949
0.01943712730032914,-18.481293952263467,6.206515986548416
-0.182325283210783,-36.37215267099776,7.2583788437189565
-0.07661231868134255,-26.980085201156985,18.774814205118588
0.11003670363308012,2.2616726326658587,21.0560746581589
0.09283835257154764,-1.6771519096070677,24.302147444834844
0.038726515787955065,28.575908079565092,-8.881436242884323
0.13051817305139143,-19.442520579559865,2.0743327589525604
-0.17136562645269343,-19.967693628629767,-21.31437860029491
-0.09299722982946236,4.095971451136881,9.277403902714298
-0.1518077985661359,24.916823346666014,6.3382432753258975
0.02352538442919917,5.982978679579662,-20.148729560963076
0.2302783655066854,1.6472144639687871,-10.186322793174059
-0.14554916430893147,28.58493971366648,14.685633053736817
-0.09672376934806459,35.694464295659664,-44.793935648169956
0.055202676696182465,-10.69559482326412,-8.936303989342678
0.14990860556372265,-22.91427058577784,22.761465323445393
-0.10083796201780389,13.096032816554692,7.384731784819052
0.06224172593569069,44.79498704276299,-7.492257433487543
0.05149906895007561,-35.21969051183375,-17.50034785993274
0.04825791129170637,-50.38701024648879,-3.2019219861757886
-0.09390119531987591,11.497949030802463,20.891108675347887
0.04535757868490378,-25.637004912997988,16.765169759379493
-0.024142736519913978,24.01821256011785,8.174816358185748
0.02995966507473361,-35.15935438560309,18.492816792817944
-0.11519922484755687,26.866123543450815,8.800041977526423
-0.19462441094821276,-6.338114883673881,32.597902649892056
-0.11695440610473523,16.446197584085503,20.42360978571049
-0.09601514201849849,32.31689933623525,-26.394169175129964
0.12123072620345239,-27.245834463643508,13.042577837872782
0.15671235510787498,-3.9968464098325476,-29.198386670698252
0.015625877256785943,66.15205892990716,-12.246923707263143
0.13932945175039488,46.270405050653935,-17.563105627937933
-0.024128173769685603,15.427857047304737,-7.007981110737945
-0.01957309202257474,16.60631021188724,26.254577777690802
-0.11094978321574966,-5.877845227018814,15.739588909713172
-0.1733338536289062,-27.540251042747613,22.36909656013598
0.049429106247502325,7.062770846640806,13.815831430506034
-0.16843757059400521,0.056884683632573804,9.38832158061797
0.12022094104680264,10.510722797135367,12.834530267306999
0.05190950170245212,22.344464928997496,1.9799021751051857
-0.14964008797301898,78.12048932101499,34.272232268188716
0.10135504195574732,23.37261950821948,-10.941415115573195
0.09103722098212164,32.90139215083474,-1.517833541592159
0.06399739043911837,-68.98808917481037,8.225868759999518
-0.131338745028123,12.244893041258335,-27.982926390650356
-0.12495934340209242,39.39033176040011,-0.26100604004116007
0.08883160798384289,-23.85080146891414,13.737692741267512
-0.06531453840041916,-47.21268838770264,14.635602850885391
-0.0569776481099033,-26.52313081382353,9.323366013481554
0.153288161618262,-8.774498578772885,-1.5076174175907044
-0.011454678233614157,32.704296698456176,-23.227691271789766
-0.17610839456386193,-43.92515807099177,-4.632806505156996
0.09769760192962082,19.609305821069377,8.595646951893206
-0.08976873999459216,27.725680744094138,-1.2928118687289025
0.06596680505242639,-6.090075422003151,1.554735428081597
-0.05352371142954089,-8.551149562857956,5.562734160139675
0.0028653096502366275,15.654921042139389,3.1507309746389227
-0.05879468677287578,-32.4856595854007,19.87648487706722
-0.10402968276706677,20.559860423464755,-61.93764468539711
-0.04185830361596675,-9.871712927343257,-8.378465168455374
-0.008126991684972698,33.78416645754134,-58.448394875742196
-0.015594062937527124,11.739054462761661,26.521455987833342
0.13488284186387073,56.01442086323047,23.17439097072889
0.039896812305654505,35.53548475285675,-43.083178831075706
-0.03800640521113902,32.44721072885097,3.414345247074194
0.06679376568825768,-24.93471010179321,-17.787435562719192
-0.019882619804173933,9.019764544212853,-7.818418962748873
0.07418319943535216,-7.231233788863077,9.770942642599996
-0.041457840015320525,-15.246840812840558,26.871530138655743
0.03306538070752018,21.856193152272656,-5.910208759790718
-0.1395364645986422,39.00014075011879,12.249948568616347
0.010474429642250942,-18.803631123086923,6.205455276895319
-0.03599505982885672,24.634668572969,-28.1122030855758
-0.10350360845624898,-61.52148448194342,-6.17430698603807
-0.23210045711223135,8.933022178907237,-22.59360916742272
0.11599218018109325,-26.35439270513276,0.42953224209038976
-0.046032769495925815,16.75360109392498,-7.913063300235051
0.24262117421207413,0.9313058141296211,-23.970443688709878
-0.1371340353457284,-16.193131641845856,-33.78090139425734
-0.094948969395023,-13.740739173643881,27.898336130903424
-0.18220561059790952,-2.9610453730880444,-17.196655311596636
0.05736081152829279,-8.572904174685426,-12.820123482936747
0.011151207480172814,-42.35943242409209,3.544389035534034
0.02198674743206044,40.879061925567996,20.34254820344443
0.014849642420338314,15.643580641551726,4.103356416718573
-0.07325427689324236,20.781820134883304,23.218019092268612
-0.0794471748324296,-16.598324853873805,-7.842327926535919
-0.13900728950485955,38.15048214948809,-3.742156466834461
-0.04989588106890065,19.827766250752937,-38.14275496457673
-0.01427265945425562,-48.85318567845599,15.656574279980951
0.008375679123053998,-59.130596795985916,9.982935130587206
-0.26031785443966643,23.389377203471398,-33.301740951356
0.017174964950424056,36.1651353579121,12.479169002983364
0.02154034232588654,-26.686830422164217,12.14956065347682
-0.09719685161714434,29.443201331757393,9.961538570587535
0.06176403273131581,38.18117528649291,-32.270001627322095
0.17104517066901578,21.44325009766526,-21.612096099444763
0.025007865253038282,3.173425265358952,-2.8628910869125237
0.0946390892834346,-13.13662343257946,-18.06987890104651
-0.023176906521876126,-6.625306393815962,-23.88817883744415
-0.14307070682387313,26.04255782282246,-1.5628548895954544
0.02136358574770043,-3.524427462504199,-30.51345523541498
0.10167047757874358,-3.903019953658218,-0.4127693348029765
0.023392458315451677,20.566512522014982,-42.1170085216834
-0.06858628269440467,7.108067053414956,-21.087147964115857
0.022193219792670287,-26.688214805055804,-27.079977369126723
0.1170056492156954,1.1636828647788364,42.459706131905534
-0.0006766315703598196,58.9558621094775,15.745731774309416
-0.0911291924209243,34.545290241520334,-13.733197803099156
0.10635205687760879,-15.833821143493779,45.28099472698547
0.010085726130883,31.229392520902053,-11.095109616522116
0.08266533855815664,-3.649165996629991,2.960860231953185
-0.03353811517120291,-2.442562734275998,5.518361257559787
-0.01948211099250748,-21.542419013773305,-7.553580562891328
-0.022687770133960564,-3.213026303677504,-7.200914670127018
-0.005409218955652967,36.597779070293306,22.696433379568962
0.036815658777903444,5.389325457943334,10.121940540565035
0.0665902686072372,4.847591018533528,-11.507274656278593
-0.18795481296551128,9.712005078433366,-13.861370658644898
-0.10366157014450927,-31.906271138966563,-16.786920256577385
0.051220464833539495,0.06040539409639025,-48.38202052274677
0.11903694355522208,-45.98367231415634,-4.699981164599759
-0.04536328558578584,-19.743858730623806,37.382754527842984
-0.12486701574414082,-12.32942569471818,8.854327728141266
-0.11654434203196953,-6.80395462284527,4.3689989340858295
-0.11291073351455837,-16.81792525197956,-7.248337644014791
0.03768974098151617,-27.994568646949254,3.197177677948094
-0.11536470206630896,-2.7309500326673892,-20.685320100648386
0.1189650322237898,5.697254295292916,53.93142730214809
-0.057152257953814116,42.64334185636875,19.645879296980144
-0.10795044222779115,29.09862403941906,30.89198944453612
-0.10035078939745862,13.582319278124668,-8.550850784002359
-0.10071064090791959,-14.956762366777147,4.42469504597547
0.026542934010421695,-61.715062780793396,1.0412102950168227
0.0827476872083837,25.361844524952012,-19.560878496361614
-0.05517764798214512,21.22214817866621,-2.8865350794919036
0.23888065549953424,40.68904998657332,6.018327079531361
-0.12468112740325597,20.600714515452083,-12.680520854105787
-0.000989794279799294,-48.19608630648973,12.822826805508916
0.152847467410088,-7.198794323027279,15.652887317300477
-0.020284769139090306,-18.380567945015056,59.73303918814576
-0.03584009015697376,3.395120981171811,6.927240028329477
0.002074780334117581,11.29197271662837,14.149526619806139
0.04036139493190812,-21.32389764661063,-16.96758539478892
-0.022223532276356282,4.41171866865838,11.286817396804596
0.017652606916414196,7.296451911713131,-1.5340267009768669
-0.06964711589227811,-35.229765852841275,31.233217304058872
-0.050968340912918665,10.552274864126893,8.585186020095465
-0.04609553597181641,5.305112837359933,-21.53542527490878
-0.015714288948314194,-19.374008751615072,26.02232571004383
-0.010142375934278672,-3.642040527672253,-8.032894733001804
-0.028104239281022417,4.708381540654489,35.79425402288593
0.03068164565645112,13.095131463445481,10.607705301684048
0.23499988333682295,-18.21167776832571,9.676451145011539
0.0733556592833599,18.844837337303318,11.039525332741071
0.013292549225615825,-19.90170467071026,18.41680900773384
-0.0732912625933849,26.4986923412326,-6.399020805571114
-0.037608149733202714,-9.082730865443404,-11.910815498347162
0.10545584455070084,-16.69973540618531,9.1171434231109
-0.15556556721741438,-35.44193125978022,-3.8356715984933394
-0.03446721096981555,99.50601692658888,-26.67515506586883
-0.08603981214259725,18.144742323295524,-16.982623801684497
0.022626253008155028,23.917596303298698,-34.068579808445214
0.0024169945903199422,-35.363144394567655,-16.80146647091164
-0.06897686129919851,-18.390393601771947,25.606937247389272
-0.08267194289790983,25.003344818257137,-32.47674625853604
0.27008048312622024,-42.60953876835208,41.081747085216534
0.15989012789946355,-7.945806465366803,16.74451824970128
-0.03012149984468584,-51.82983327915829,-24.80298909524453
-0.05397668412722117,29.09952159523311,-15.89262537640906
-0.01652316534763784,-8.987417861406952,18.413438436734605
-0.1277934952897645,18.523326907115774,-27.217750646433462
-0.008453669540528763,56.00672291228604,11.783560238466361
-0.15081892118393625,-0.45538609582457157,21.9077815609879
0.18954198144630507,37.40326827405435,9.737122088389867
0.018365835299468166,16.26311971199867,-13.838659209394963
0.05558673792322334,-29.646776780122913,-1.8538503460418436
-0.022009521731477154,-78.2373743527737,-10.8897837390703
0.04043958576961381,-39.32642415962407,-1.6099581480496084
-0.104094760484013,-25.951784812839016,-37.05437732692821
-0.07902224359144894,-12.061114958905582,-4.678739262784612
-0.10907625150534153,-36.58854888064747,-6.919152581882239
0.027025175792575226,-18.312464872841915,23.149367786835413
0.03985573515845617,31.83645623846799,-16.229872555265878
0.027773192950805617,-28.77894972098543,-18.690051031369464
-0.0863658341139031,34.19423840315512,-12.72517104853409
0.017010396483781103,-32.933797048864726,-22.927145338730128
-0.018539409041439695,41.75977281375686,-0.8534870776971998
0.011361965291781897,-23.897572692886424,16.41587072142262
-0.06798834760191257,35.1894966797187,2.909638570816086
0.03462608555796953,-16.46604658707966,16.250215972345075
0.0884500836564006,-56.54586413199148,-16.012715178487472
0.00559005638827655,-14.415815473918201,27.77450117894204
0.03863876711816587,-9.945158095392417,-8.69237723021419
-0.024192413809828145,-59.710219317842636,6.690983621315016
-0.04245824505804499,-59.34973154792401,11.810343619184842
0.10405355295317459,-26.978398825221753,5.689895012022864
-0.09495328026714836,-29.882832147570262,-55.57486926651433
-0.04365424024088094,7.761285647643511,27.790749535951825
-0.005399351405417248,-30.435579697087384,-14.884147397378925
0.15421456369755898,8.519037464592321,-22.751838401068323
-0.0819664071122482,13.54803821232712,20.102525737876114
0.061457207971953635,64.9449245820209,0.588833796729468
0.18845016262454528,-22.036541883550136,-19.31273135605225
-0.059414590112927594,11.96383175842066,6.477333298314551
0.010878950948249668,18.117567740150864,32.335754619579205
0.14638313227796218,-26.78680576224135,-42.52073896391086
0.06719513526708976,-15.227720970849447,7.729697399677116
-0.09324751477156351,58.00566032209309,22.430756183919808
0.02860374175357764,42.185972321483504,39.739157458545066
-0.14650845121823727,11.796287971765617,1.9294650052634092
0.14508681715501445,-4.624890508089597,2.142061565835123
-0.039443465998074634,-64.48942661222449,34.30713982318874
-0.011644998535164418,40.72350769182552,-2.672318868306418
-0.08580316949148087,24.098831234377034,-24.279158082817226
-0.0183227599233418,-27.00022316187253,-32.77795824869935
0.07429992103667057,9.410768780874514,30.004607170604828
0.01410003084963448,-11.746835314189909,0.22564810129472318
-0.14142520653042637,-13.475570641399496,14.95625275340711
0.0800116417994617,20.242131315889882,9.751196847457484
0.12329470888056651,1.0326386578368636,-39.95447116136631
-0.07561532213405497,40.15460423712537,19.889857712171498
-0.06977446918788498,-42.078666405920735,-25.879887688736687
0.1288117080230049,20.072026161344567,-24.759278174349504
0.012380856824838825,3.1141907923005054,15.547884653079054
-0.10999968303606043,27.458356607633267,-30.073989158661405
-0.048507056175357575,-9.12953332999977,-0.26223517543940544
0.0370647853473026,1.485680436530309,9.001165413198542
0.0817310893131607,-19.457949367747887,-22.865911681846107
0.02476947723649382,23.9600696380632,-10.76245187157632
0.12768977158037007,-4.836832569814595,16.917757704479097
-0.03281213721805807,-9.550256963043351,19.06225895349214
-0.051026400372761585,-21.63638904232462,22.574986037931595
-0.06518596136852833,6.41742038828413,7.118876982559932
-0.02073302205487248,-2.1320692204338103,-18.981728952979367
0.10490003477911854,40.053512324286324,17.576849822196007
0.21331713140612238,-24.33931684291341,-14.093517879980997
-0.07891985170311039,-52.75343747118308,-18.149094126353
0.03124257380945076,34.496048332501694,-19.129920245274217
-0.27007551940469854,39.25417171001472,-1.4375418096312786
0.04030165971216191,20.166844987165252,-17.94339226165623
0.03334345307473167,20.7026754049816,31.55155291831429
-0.03510693248178356,-15.462540179476719,-3.98576776352299
-0.11837850221565163,-22.294963762575048,-30.15440922080178
0.08956076751607053,5.621878369845994,-11.39555882698643
0.05205749091116721,-38.46030903628313,-13.767742468477504
-0.07249544768582888,-19.639930845029422,-1.845339948411144
0.056156413708846525,29.465901582582056,1.2090560660220375
-0.15450124461736547,46.088527087453855,11.478338378992138
-0.14728716834887687,-19.504362549880007,-15.683089992708927
0.03491875835587415,15.167753912497172,-18.98778026293822
-0.03473543645005617,4.896645348628175,-3.366882333323235
0.1288304364284388,-18.057843095535162,-48.35763483443762
0.18949883326427433,34.35419385960979,-45.3400098298367
-0.0452206938279133,3.6801260393244766,12.336090996420186
-0.16158005420526386,13.299790969841562,-10.882284002581828
-0.16499907035569608,-3.608402895110917,9.493346045714587
0.1344028543791795,-40.51295558972273,32.28608612248462
-0.13800696813965638,3.701676437586753,13.057518963449212
0.1067266963426276,24.25336930345356,-17.48048290993998
-0.05637816867897172,-52.54852006227346,-0.407311566222169
0.05751732602332286,22.41732373971549,-2.103919320157565
0.07256458774546728,11.799396253777935,6.291125188179459
0.04682564291177607,-5.587107946975805,15.20820546924785
-0.1218140996821868,0.6852651317896808,-1.7077043021629756
-0.06201584912003506,-22.482387103222187,-9.585800454790359
0.07938015155675847,23.290835277025007,-16.366577999509772
0.25208556957763945,17.09057366152072,-7.618514841776282
-0.115895254557397,17.555476921267967,-6.067995462532973
-0.06053904686216223,8.218296216380876,13.332362644406734
-0.1305108385310819,-4.182073777191393,-7.820448708914119
-0.021480926481622514,-37.24888803053251,-18.161422513171065
0.1698540371898114,-13.986474233618859,24.928743224352985
0.04028047567734261,-9.26596370691974,-6.771772077675289
0.025942122664855488,-48.7061478396154,-16.08225787068337
0.27729731453146983,-36.050371238228784,-31.3244638115664
-0.09874577987222981,-19.725442803594806,36.24022345348634
0.01744212237628795,53.97773720074813,3.1716000851092523
-0.03652886223032915,-0.37564604434106114,9.127340710475135
-0.028317237612669,18.138096606938586,-37.9634178939682
0.07101569567222478,12.162277012200558,10.549148081300029
0.022889903667324532,42.684580494519864,28.542647180237903
0.18616676447257705,-10.004314531944658,-35.39364794824521
0.06479325715967287,12.356164211264108,-3.62206477305318
0.14045950999255088,-44.30903948313047,4.205565415216509
0.015159220756648105,-37.51709640859086,-8.773554692926519
0.13159364079881825,70.93376403907101,4.147927347884542
-0.03648447007710161,-10.971019486756068,21.314684652612375
-0.0817844628732784,-60.376490283333275,25.900353241883014
-0.024477458846681927,-16.93567406208885,17.835253194806363
-0.09559381182320946,11.911950226949951,-24.07496366712659
-0.026665653410584484,-15.776775016548498,28.506908772077416
-0.1145868477227203,23.742867216979846,0.5619838603122633
0.0419907334212735,-25.149469682680174,15.806487216641722
0.15810288666666322,8.220720442107945,0.2771498215374803
0.013207262438732471,-52.45976072720189,-13.049940579485737
-0.07190465147979906,-14.199341555493614,20.156918479372656
0.049208190372391075,28.439076027302768,22.156269710063214
-0.020775352666681846,39.7540398630305,35.532229754480376
0.08994046013503039,20.747016119638005,26.889676684631375
0.02605661390379954,-0.3922886218645379,-8.1308342016491
0.176142299539855,2.434082326373945,-2.552528883498268
-0.030248955624566906,3.4123062704686826,-2.1097920059086124
0.06140026601009633,39.206802176908205,6.8644658244658965
-0.05071172637530629,-6.640648098797671,-23.59013851400045
0.006289068192160557,-26.273383715282684,22.327188155914833
0.04101763796284236,-1.6153598485966132,-21.616515558993537
-0.2130924162305735,-15.346457932198179,-17.190088620635645
0.0015348845415644825,-5.844087541189285,-12.056120671866623
0.04397180335948503,7.89961403299546,-3.091983806701577
-0.06294924584442572,25.576537013163435,-9.816269412098977
0.042688883461117974,18.091459104317153,4.968985278784427
0.04998607928722944,29.66146292429238,5.93168534673623
0.013263691984081855,30.39055674727588,15.009299914139167
-0.04240606675181646,12.276043350552504,-23.667730472290472
-0.0021136205834662142,25.22452774751411,0.7537669429807746
-0.07875879998540415,-11.477452546410609,-8.403256582709338
-0.1330229825138299,-51.39648015109825,-28.180183193126144
0.043309423105485856,25.66395392898884,15.038503479246717
0.07766766285678281,30.594081557498328,1.6711937295055863
0.18443422641522889,-54.22308830409447,10.931016884759519
0.0732445234768279,11.309721580092717,20.808726200903074
0.055023315222403626,-6.064379141593267,-2.3357291322263736
0.11435968653411972,37.87503775409375,-12.520457326129664
-0.10963476816600799,-6.912502099441099,2.258151552507774
0.07790258581423017,41.93152037749201,-0.9938816549092468
-0.02693835257144835,-27.584350309057445,-7.6714406689455
0.02219746458267051,-8.697279405471061,18.78298504224323
0.06841737294260815,-12.151634331188067,9.636021609214396
-0.027652207516437856,9.79795029339558,-27.10213783052066
0.10716297701131194,55.18061190735749,-14.147287340863299
0.002773782389263296,-18.211897150028605,-14.59446993097734
0.020719532811074443,-27.27885716011636,39.531990038253625
-0.07730656410275158,-31.113113980206744,10.818818302512678
-0.11802137140037823,7.3993629860241645,24.75757822168193
