0.11965677,0.81297925,-13.92436450,0.00000000,0.00000000,250.00000000
-0.13460956,35.71329371,17.59098792,250.00000000,0.00000000,0.00000000
0.04953891,10.36484200,-1.51004218,250.00000000,0.00000000,0.00000000
-0.12479791,13.40978673,40.93863023,0.00000000,250.00000000,0.00000000
0.03501882,33.50699123,-3.10393832,250.00000000,0.00000000,0.00000000
-0.01758268,-36.08965125,-19.10641130,0.00000000,0.00000000,250.00000000
-0.06301406,-14.09183085,-33.27872260,0.00000000,0.00000000,250.00000000
-0.05904762,30.26290977,22.39204657,250.00000000,0.00000000,0.00000000
-0.03704272,-17.71364212,-1.00801355,0.00000000,0.00000000,250.00000000
0.07163853,-4.22872625,-25.88573108,0.00000000,0.00000000,250.00000000
0.00767024,4.84414118,3.35493651,250.00000000,0.00000000,0.00000000
0.11130534,25.48326931,1.80104968,250.00000000,0.00000000,0.00000000
0.05564983,-21.24305841,7.16643855,0.00000000,250.00000000,0.00000000
-0.00388002,35.60801214,-8.08851935,250.00000000,0.00000000,0.00000000
-0.00671825,-6.47371130,0.28949433,0.00000000,250.00000000,0.00000000
-0.22784245,6.06470731,-16.21710387,0.00000000,0.00000000,250.00000000
0.01961455,26.03831510,-52.06567661,0.00000000,0.00000000,250.00000000
-0.03199644,-4.83675323,3.12462187,0.00000000,250.00000000,0.00000000
-0.03054542,11.32303861,-27.05661261,0.00000000,0.00000000,250.00000000
-0.05954137,0.74564732,16.02348837,0.00000000,250.00000000,0.00000000
-0.04931885,11.39423978,-13.68439357,250.00000000,0.00000000,0.00000000
0.00596122,-44.78356578,-0.31276291,0.00000000,250.00000000,0.00000000
0.15014834,-2.68885731,-6.05904806,0.00000000,0.00000000,250.00000000
0.08125637,-17.00581819,33.13237871,0.00000000,250.00000000,0.00000000
-0.12552905,-10.88776729,13.55367203,0.00000000,250.00000000,0.00000000
0.12735052,0.66696399,12.56912270,0.00000000,250.00000000,0.00000000
-0.00154319,27.91458126,-7.31832521,250.00000000,0.00000000,0.00000000
-0.11440082,0.47783204,9.16149448,0.00000000,250.00000000,0.00000000
-0.00042284,-14.67661950,-10.06206017,0.00000000,0.00000000,250.00000000
-0.15387609,-19.62919843,-0.79892364,0.00000000,0.00000000,250.00000000
0.08929262,18.88764341,-19.40248024,250.00000000,0.00000000,0.00000000
0.02483352,-13.85065655,-43.33025110,0.00000000,0.00000000,250.00000000
-0.11719669,3.81783451,-14.65315216,0.00000000,0.00000000,250.00000000
-0.01895308,-4.47209686,0.84120136,0.00000000,250.00000000,0.00000000
-0.02193775,6.01021260,-18.48753133,0.00000000,0.00000000,250.00000000
-0.06283598,12.15123948,15.85062530,250.00000000,0.00000000,0.00000000
0.10636857,-12.63715901,1.15259597,0.00000000,250.00000000,0.00000000
0.14555919,24.86630282,-5.76529443,250.00000000,0.00000000,0.00000000
0.08575530,12.24598907,1.82045135,250.00000000,0.00000000,0.00000000
0.05131501,-24.35691812,19.29113987,0.00000000,250.00000000,0.00000000
-0.07698230,-30.63579271,-3.45553328,0.00000000,0.00000000,250.00000000
0.09615901,7.52121923,-7.40529289,250.00000000,0.00000000,0.00000000
-0.09069642,40.61023405,10.17235582,250.00000000,0.00000000,0.00000000
-0.01645569,2.86382106,11.86942480,0.00000000,250.00000000,0.00000000
0.03942539,3.52915214,-15.25983756,0.00000000,0.00000000,250.00000000
0.19077754,12.90054370,-43.63847709,0.00000000,0.00000000,250.00000000
0.00416977,-2.58229312,33.87288744,0.00000000,250.00000000,0.00000000
-0.06554255,-33.47533742,13.98112213,0.00000000,250.00000000,0.00000000
-0.02370737,10.74873420,12.78045651,250.00000000,0.00000000,0.00000000
-0.09919494,-9.10095669,-11.78403832,0.00000000,0.00000000,250.00000000
0.16062032,16.15623828,-50.57994327,0.00000000,0.00000000,250.00000000
0.01703265,32.09328890,19.57763859,250.00000000,0.00000000,0.00000000
0.30068299,-10.06978143,14.77646449,0.00000000,250.00000000,0.00000000
0.01751485,-17.13021339,-5.72027446,0.00000000,0.00000000,250.00000000
-0.00980615,-14.92585069,10.27538325,0.00000000,250.00000000,0.00000000
-0.07947678,16.95324736,6.64494193,250.00000000,0.00000000,0.00000000
0.00640442,35.96407579,7.65841110,250.00000000,0.00000000,0.00000000
-0.13592035,5.60814768,12.33135892,0.00000000,250.00000000,0.00000000
-0.16966174,43.23747953,19.16552526,250.00000000,0.00000000,0.00000000
-0.08502891,-2.83940553,15.03653054,0.00000000,250.00000000,0.00000000
-0.04033106,12.58656367,-15.25735386,250.00000000,0.00000000,0.00000000
-0.02896953,6.20084382,43.66831888,0.00000000,250.00000000,0.00000000
-0.01250232,-25.67041410,7.27562778,0.00000000,250.00000000,0.00000000
0.13585001,-14.17642694,21.73153730,0.00000000,250.00000000,0.00000000
-0.03986450,5.61632281,-48.35534249,0.00000000,0.00000000,250.00000000
-0.14363741,3.13049887,21.39617968,0.00000000,250.00000000,0.00000000
-0.14633092,50.38109567,26.28497451,250.00000000,0.00000000,0.00000000
0.08334645,5.61025294,-2.74237117,250.00000000,0.00000000,0.00000000
-0.01716105,26.57123973,10.31275687,250.00000000,0.00000000,0.00000000
0.03817948,7.79108727,19.75721357,0.00000000,250.00000000,0.00000000
-0.06530902,-16.46635909,1.11624518,0.00000000,250.00000000,0.00000000
-0.07090921,2.03296739,-47.16558908,0.00000000,0.00000000,250.00000000
-0.01399200,11.62596785,4.53659499,250.00000000,0.00000000,0.00000000
-0.11801269,-22.35913552,-6.46957060,0.00000000,0.00000000,250.00000000
0.09071406,-10.31266846,-9.54048203,0.00000000,0.00000000,250.00000000
-0.00137187,2.07445710,3.54812500,250.00000000,0.00000000,0.00000000
-0.03600365,-12.33834682,17.23302813,0.00000000,250.00000000,0.00000000
-0.00411839,2.64067687,7.58345754,0.00000000,250.00000000,0.00000000
0.09932720,-28.71309197,-36.47880561,0.00000000,0.00000000,250.00000000
-0.19627810,-7.08014212,27.06051764,0.00000000,250.00000000,0.00000000
0.06238487,-24.54740001,1.62295064,0.00000000,250.00000000,0.00000000
0.02940442,-4.74370400,10.16352176,0.00000000,250.00000000,0.00000000
-0.19072961,-14.79123095,23.33464502,0.00000000,250.00000000,0.00000000
-0.10707275,-22.15173176,1.60348560,0.00000000,250.00000000,0.00000000
-0.14712012,-14.65037828,-5.39497380,0.00000000,0.00000000,250.00000000
0.06704637,-3.35642724,37.03374682,0.00000000,250.00000000,0.00000000
0.02735169,-12.47388708,-14.85064197,0.00000000,0.00000000,250.00000000
-0.09872332,10.69403989,16.69081993,250.00000000,0.00000000,0.00000000
-0.14276750,19.32498946,-10.27265005,250.00000000,0.00000000,0.00000000
0.18324953,24.31840187,22.36386301,250.00000000,0.00000000,0.00000000
0.00063064,2.81781351,2.44418486,250.00000000,0.00000000,0.00000000
0.06809995,4.87097281,-1.22433016,250.00000000,0.00000000,0.00000000
-0.00217653,31.74539067,-22.49774019,250.00000000,0.00000000,0.00000000
0.00067186,15.09503262,-20.98161486,250.00000000,0.00000000,0.00000000
0.05677208,16.89945485,-22.37277278,250.00000000,0.00000000,0.00000000
-0.02821290,20.20270057,-28.30931345,250.00000000,0.00000000,0.00000000
-0.05450953,8.36278096,-6.12470083,250.00000000,0.00000000,0.00000000
0.11904958,8.05320266,-4.51582444,250.00000000,0.00000000,0.00000000
-0.00987094,33.60575196,26.06929943,250.00000000,0.00000000,0.00000000
0.13894392,29.47678869,-10.33151729,250.00000000,0.00000000,0.00000000
-0.16641312,-5.63176955,-7.07269369,0.00000000,0.00000000,250.00000000
0.02837887,-17.27801150,-6.58350863,0.00000000,0.00000000,250.00000000
0.08318531,-26.62442262,-33.95269083,0.00000000,0.00000000,250.00000000
0.21149377,23.05676479,-28.32859155,250.00000000,0.00000000,0.00000000
-0.07860956,29.09954029,45.37742921,250.00000000,0.00000000,0.00000000
0.13228181,18.19714234,15.94540143,250.00000000,0.00000000,0.00000000
0.11700363,-4.02065705,-30.84001754,0.00000000,0.00000000,250.00000000
0.01493973,61.38661608,32.40640245,250.00000000,0.00000000,0.00000000
-0.08948511,-44.45054974,16.28108136,0.00000000,250.00000000,0.00000000
-0.02218173,-5.51703537,27.02936461,0.00000000,250.00000000,0.00000000
0.03707717,15.31609567,-12.55877744,250.00000000,0.00000000,0.00000000
0.07139717,16.66985307,4.88368375,250.00000000,0.00000000,0.00000000
0.09765988,-18.66174821,21.18245483,0.00000000,250.00000000,0.00000000
0.11370239,33.58404860,8.79497504,250.00000000,0.00000000,0.00000000
-0.04707072,23.49362100,-27.73622743,250.00000000,0.00000000,0.00000000
0.02506494,10.65427001,2.58818890,250.00000000,0.00000000,0.00000000
0.03745759,3.28041982,-4.76048921,250.00000000,0.00000000,0.00000000
-0.07922306,10.38400083,5.92632589,250.00000000,0.00000000,0.00000000
-0.03084628,-11.80797750,-13.23773956,0.00000000,0.00000000,250.00000000
0.19729068,-17.80145113,-25.10394731,0.00000000,0.00000000,250.00000000
0.04573849,-2.43480468,9.96356795,0.00000000,250.00000000,0.00000000
0.13125945,3.23566431,48.90366431,0.00000000,250.00000000,0.00000000
-0.13963521,4.96121056,58.26483653,0.00000000,250.00000000,0.00000000
-0.10122447,40.70403020,-4.54569164,250.00000000,0.00000000,0.00000000
-0.08080720,-39.15476931,3.18561252,0.00000000,250.00000000,0.00000000
-0.06584356,1.28688159,7.49940063,0.00000000,250.00000000,0.00000000
0.05452699,-28.83387651,-12.54170464,0.00000000,0.00000000,250.00000000
-0.00558091,28.12192075,-12.13345768,250.00000000,0.00000000,0.00000000
-0.16955819,-9.20884839,26.16010107,0.00000000,250.00000000,0.00000000
0.20975484,-19.39299537,-35.60791687,0.00000000,0.00000000,250.00000000
0.15530266,0.93989809,-33.91957032,0.00000000,0.00000000,250.00000000
0.02799979,-15.86075621,-27.78605556,0.00000000,0.00000000,250.00000000
-0.09170880,-15.18382496,-16.45401986,0.00000000,0.00000000,250.00000000
0.32094232,56.56267482,-15.02554977,250.00000000,0.00000000,0.00000000
-0.11910432,-33.02563521,-33.79398735,0.00000000,0.00000000,250.00000000
-0.13179465,6.85383286,29.66276244,0.00000000,250.00000000,0.00000000
0.11690570,-3.10813561,-45.81421044,0.00000000,0.00000000,250.00000000
-0.16574230,5.16536462,14.37745176,0.00000000,250.00000000,0.00000000
0.21706223,-17.77831200,2.22285354,0.00000000,250.00000000,0.00000000
-0.08044623,-7.29947056,7.32908122,0.00000000,250.00000000,0.00000000
-0.19463760,17.17636244,7.46396934,250.00000000,0.00000000,0.00000000
-0.02393616,7.25584656,7.89319385,250.00000000,0.00000000,0.00000000
-0.01252888,4.33636313,5.27227339,250.00000000,0.00000000,0.00000000
-0.01147066,-6.19908346,-10.44805305,0.00000000,0.00000000,250.00000000
0.20176564,-19.36755369,27.15537590,0.00000000,250.00000000,0.00000000
0.02033233,-23.09955212,-32.55076014,0.00000000,0.00000000,250.00000000
-0.07904735,10.46351249,21.99391375,0.00000000,250.00000000,0.00000000
-0.09744519,-21.57251741,8.52854955,0.00000000,250.00000000,0.00000000
0.09895407,21.70178776,-2.57709202,250.00000000,0.00000000,0.00000000
0.03855545,36.71596334,2.79936813,250.00000000,0.00000000,0.00000000
0.04830181,26.55554460,-27.74631766,250.00000000,0.00000000,0.00000000
0.03922926,10.40257870,10.11641203,250.00000000,0.00000000,0.00000000
-0.13245701,6.72248906,1.36206163,250.00000000,0.00000000,0.00000000
0.01285154,-1.20592184,-3.67132219,0.00000000,0.00000000,250.00000000
-0.10843681,-9.20119832,7.34273955,0.00000000,250.00000000,0.00000000
0.03281977,-16.72035375,0.44496722,0.00000000,250.00000000,0.00000000
0.03639252,-3.74110383,4.76491637,0.00000000,250.00000000,0.00000000
-0.08227994,13.01392943,6.61198428,250.00000000,0.00000000,0.00000000
-0.05892495,-33.79652556,-25.93267058,0.00000000,0.00000000,250.00000000
-0.06201492,5.88774170,-11.65020441,0.00000000,0.00000000,250.00000000
0.20516822,15.86093255,-10.38219708,250.00000000,0.00000000,0.00000000
0.07573715,27.04846282,6.12177882,250.00000000,0.00000000,0.00000000
-0.11321468,-3.11199267,-39.67673999,0.00000000,0.00000000,250.00000000
-0.08272607,-0.43150634,10.43445898,0.00000000,250.00000000,0.00000000
0.06985593,1.19888976,-0.52011013,250.00000000,0.00000000,0.00000000
-0.15543048,-16.09628857,8.37273288,0.00000000,250.00000000,0.00000000
-0.02512715,30.78130788,4.13693601,250.00000000,0.00000000,0.00000000
0.12433946,13.66161529,13.55074213,250.00000000,0.00000000,0.00000000
0.14817081,37.43183462,-4.05172227,250.00000000,0.00000000,0.00000000
0.04251829,19.69520725,-23.76638924,250.00000000,0.00000000,0.00000000
0.03599933,35.19294112,-50.16665138,250.00000000,0.00000000,0.00000000
0.04938413,-14.04414800,-19.75040342,0.00000000,0.00000000,250.00000000
-0.03758335,-10.13663365,16.89394538,0.00000000,250.00000000,0.00000000
-0.06858770,24.41504628,20.39602836,250.00000000,0.00000000,0.00000000
-0.09000930,2.92662483,-4.50490717,250.00000000,0.00000000,0.00000000
-0.00862740,-12.57521802,27.20301837,0.00000000,250.00000000,0.00000000
0.24821093,13.39213475,14.75216073,250.00000000,0.00000000,0.00000000
-0.00880293,36.37849203,-28.25857093,250.00000000,0.00000000,0.00000000
-0.02294952,-34.96366636,20.19177043,0.00000000,250.00000000,0.00000000
0.00389683,6.75116447,-5.94511313,250.00000000,0.00000000,0.00000000
-0.07214248,-14.93907088,19.74302960,0.00000000,250.00000000,0.00000000
-0.08522431,24.65725083,-5.23203491,250.00000000,0.00000000,0.00000000
0.16062545,-13.65958493,-10.89391732,0.00000000,0.00000000,250.00000000
-0.10783610,-18.77210551,34.56133402,0.00000000,250.00000000,0.00000000
0.15919886,2.25326179,-18.17570038,0.00000000,0.00000000,250.00000000
0.01703244,5.34864387,-10.14133323,0.00000000,0.00000000,250.00000000
0.04682419,8.26615943,36.84351131,0.00000000,250.00000000,0.00000000
-0.04896997,21.34800718,4.90781933,250.00000000,0.00000000,0.00000000
0.18906975,-9.57913033,17.96089536,0.00000000,250.00000000,0.00000000
0.04409660,17.59012363,9.78938832,250.00000000,0.00000000,0.00000000
0.03470745,-12.86595730,-1.92208443,0.00000000,0.00000000,250.00000000
-0.07717289,-3.93360907,10.69441522,0.00000000,250.00000000,0.00000000
-0.04849791,4.62745705,-8.16216863,0.00000000,0.00000000,250.00000000
-0.40781253,20.75530634,-7.81781711,250.00000000,0.00000000,0.00000000
0.17362167,-29.96940131,-16.25653647,0.00000000,0.00000000,250.00000000
-0.09357969,5.67234968,13.89452574,0.00000000,250.00000000,0.00000000
-0.11539287,-5.97795001,-19.10745221,0.00000000,0.00000000,250.00000000
-0.10788216,10.75360733,-21.38452516,0.00000000,0.00000000,250.00000000
-0.09998517,-5.58429788,4.92066433,0.00000000,250.00000000,0.00000000
-0.10153055,-0.65326246,22.49203485,0.00000000,250.00000000,0.00000000
-0.12109506,-1.30389351,2.52347214,0.00000000,250.00000000,0.00000000
0.05741512,16.58279209,-20.32589246,250.00000000,0.00000000,0.00000000
-0.04715431,5.52070021,16.00760259,0.00000000,250.00000000,0.00000000
-0.19776798,-14.07548021,6.24655509,0.00000000,250.00000000,0.00000000
0.09599379,-37.46154643,8.02862893,0.00000000,250.00000000,0.00000000
0.06903761,-0.27535849,25.44031810,0.00000000,250.00000000,0.00000000
-0.03669073,11.60412990,-6.61630113,250.00000000,0.00000000,0.00000000
0.07103404,-21.30908436,27.88977748,0.00000000,250.00000000,0.00000000
-0.01430253,-7.58920297,7.22048966,0.00000000,250.00000000,0.00000000
-0.09952201,0.17141251,20.64322891,0.00000000,250.00000000,0.00000000
0.08637018,7.70662356,-45.70144973,0.00000000,0.00000000,250.00000000
-0.19962746,-1.85382240,-8.21091548,0.00000000,0.00000000,250.00000000
-0.04416183,-35.96895182,-4.06750053,0.00000000,0.00000000,250.00000000
-0.01981610,-30.41950587,9.26506051,0.00000000,250.00000000,0.00000000
0.03329159,-35.14322981,-6.11780249,0.00000000,0.00000000,250.00000000
0.14730030,7.65032103,-2.02005116,250.00000000,0.00000000,0.00000000
0.07556533,-13.47942528,2.49887155,0.00000000,250.00000000,0.00000000
-0.08527233,21.71985926,2.95106269,250.00000000,0.00000000,0.00000000
0.08856346,-12.53875815,9.86182406,0.00000000,250.00000000,0.00000000
0.02309502,33.10857515,-14.35790448,250.00000000,0.00000000,0.00000000
-0.03260609,-19.03597183,18.72976595,0.00000000,250.00000000,0.00000000
0.07743227,-1.65788824,-10.77790637,0.00000000,0.00000000,250.00000000
-0.04033888,8.76839467,24.89762135,0.00000000,250.00000000,0.00000000
-0.07923028,-17.19793959,-18.54696015,0.00000000,0.00000000,250.00000000
0.02433230,6.56912273,-19.18408491,0.00000000,0.00000000,250.00000000
0.13155016,-5.49014665,21.06522631,0.00000000,250.00000000,0.00000000
0.12907019,-11.49373358,-23.35454203,0.00000000,0.00000000,250.00000000
0.08113675,1.41692899,19.62751252,0.00000000,250.00000000,0.00000000
-0.03789294,-2.10954973,11.02965506,0.00000000,250.00000000,0.00000000
0.09879413,-18.72520862,-2.49703886,0.00000000,0.00000000,250.00000000
-0.01361359,-16.71293721,-38.79936865,0.00000000,0.00000000,250.00000000
0.15558617,24.34370496,39.70683647,250.00000000,0.00000000,0.00000000
-0.04530146,-41.36106723,15.23102221,0.00000000,250.00000000,0.00000000
-0.06459238,-10.72325940,-16.29943960,0.00000000,0.00000000,250.00000000
0.01960212,4.21580333,24.56948417,0.00000000,250.00000000,0.00000000
0.00018080,-24.15845212,11.08433411,0.00000000,250.00000000,0.00000000
0.17772830,20.28422163,22.68048121,250.00000000,0.00000000,0.00000000
0.03032527,0.71152656,5.91458327,0.00000000,250.00000000,0.00000000
-0.07907866,22.93819944,19.76704706,250.00000000,0.00000000,0.00000000
-0.12143942,32.27290790,-27.01868308,250.00000000,0.00000000,0.00000000
-0.02267418,5.37408980,13.26338044,0.00000000,250.00000000,0.00000000
-0.02771014,23.80284922,-32.16774201,250.00000000,0.00000000,0.00000000
-0.04346380,2.29769679,-0.39117640,250.00000000,0.00000000,0.00000000
0.15880786,2.37004995,7.06790385,0.00000000,250.00000000,0.00000000
0.09999824,38.09171013,-14.58815482,250.00000000,0.00000000,0.00000000
0.04116973,5.07214082,-4.74188552,250.00000000,0.00000000,0.00000000
-0.04363889,-20.96584287,42.50821365,0.00000000,250.00000000,0.00000000
0.00985594,-3.81678904,25.41792293,0.00000000,250.00000000,0.00000000
-0.03600413,8.04637451,2.18891227,250.00000000,0.00000000,0.00000000
-0.10038475,-18.22592179,24.57011927,0.00000000,250.00000000,0.00000000
-0.05353910,9.06079989,-7.45497408,250.00000000,0.00000000,0.00000000
-0.05095970,18.24858253,-19.22973770,250.00000000,0.00000000,0.00000000
-0.11595563,-1.93897842,24.47511222,0.00000000,250.00000000,0.00000000
0.02497834,14.88926491,-3.01300495,250.00000000,0.00000000,0.00000000
-0.04553324,2.23906207,-18.89256688,0.00000000,0.00000000,250.00000000
-0.25998558,-3.24422069,32.11198054,0.00000000,250.00000000,0.00000000
0.02572944,18.33248156,-9.85048534,250.00000000,0.00000000,0.00000000
0.10819170,12.98847575,-21.71060756,0.00000000,0.00000000,250.00000000
-0.02035805,-13.35221546,-11.32037711,0.00000000,0.00000000,250.00000000
0.01803173,33.52929993,-25.64544882,250.00000000,0.00000000,0.00000000
-0.05140680,-2.55563253,14.33953104,0.00000000,250.00000000,0.00000000
0.12470720,6.22142390,9.49708381,250.00000000,0.00000000,0.00000000
-0.06430110,-21.70448287,-4.57677636,0.00000000,0.00000000,250.00000000
0.16847069,-35.72003541,-9.07693988,0.00000000,0.00000000,250.00000000
-0.08279729,-6.22252029,19.97196974,0.00000000,250.00000000,0.00000000
0.14136545,-31.57516688,-9.41282774,0.00000000,0.00000000,250.00000000
0.02773275,-7.61267115,6.37649633,0.00000000,250.00000000,0.00000000
-0.09974387,14.31982909,0.71236399,250.00000000,0.00000000,0.00000000
-0.04341211,8.92826673,3.33635803,250.00000000,0.00000000,0.00000000
0.26809178,14.08012269,24.28331949,250.00000000,0.00000000,0.00000000
-0.06360167,-3.75360787,9.95782002,0.00000000,250.00000000,0.00000000
0.25459920,-27.73772422,10.06699301,0.00000000,250.00000000,0.00000000
-0.08377285,-2.14358660,-13.22795885,0.00000000,0.00000000,250.00000000
0.01888955,-5.07861842,-4.89772356,0.00000000,0.00000000,250.00000000
-0.03541845,1.01039487,-27.27338864,0.00000000,0.00000000,250.00000000
0.09521047,8.21438876,51.42113428,0.00000000,250.00000000,0.00000000
-0.09857781,0.73228927,-10.17537429,0.00000000,0.00000000,250.00000000
-0.08872206,-17.10651158,-20.92529801,0.00000000,0.00000000,250.00000000
-0.02460366,-23.82718859,7.45227950,0.00000000,250.00000000,0.00000000
0.07825249,-29.49859466,11.55215955,0.00000000,250.00000000,0.00000000
0.06043269,23.24420368,15.85400506,250.00000000,0.00000000,0.00000000
-0.04602053,11.24403653,13.08622553,250.00000000,0.00000000,0.00000000
0.06141828,29.22792071,26.68230318,250.00000000,0.00000000,0.00000000
0.04143786,18.03263526,-18.33828292,250.00000000,0.00000000,0.00000000
0.03554028,-40.54816934,-22.08741697,0.00000000,0.00000000,250.00000000
0.13599778,25.24119915,26.40041820,250.00000000,0.00000000,0.00000000
0.08103094,14.77419230,41.84064554,0.00000000,250.00000000,0.00000000
-0.05995479,5.17446861,27.05054727,0.00000000,250.00000000,0.00000000
-0.10608270,4.14017068,17.57644795,0.00000000,250.00000000,0.00000000
0.00599888,-16.71331806,-39.18065706,0.00000000,0.00000000,250.00000000
0.13652406,17.04741142,-14.99365121,250.00000000,0.00000000,0.00000000
-0.08549669,30.78093996,14.29111211,250.00000000,0.00000000,0.00000000
-0.11086566,36.58948959,-17.94644322,250.00000000,0.00000000,0.00000000
0.02984984,-27.63459232,-0.04647788,0.00000000,250.00000000,0.00000000
0.02634655,-36.19198271,17.59358656,0.00000000,250.00000000,0.00000000
-0.03749690,-10.53552657,-18.06987721,0.00000000,0.00000000,250.00000000
-0.01042423,11.88761431,-23.36201923,0.00000000,0.00000000,250.00000000
0.03336152,-6.70860971,25.73095884,0.00000000,250.00000000,0.00000000
-0.03034433,17.39496369,-14.72234616,250.00000000,0.00000000,0.00000000
0.01571264,3.70401207,-23.22875348,0.00000000,0.00000000,250.00000000
-0.01005139,-3.60365831,5.85033660,0.00000000,250.00000000,0.00000000
0.06837328,-16.65047503,-24.65806468,0.00000000,0.00000000,250.00000000
-0.07410240,38.24006342,13.98569420,250.00000000,0.00000000,0.00000000
-0.06192061,-39.08570470,-0.26423427,0.00000000,250.00000000,0.00000000
-0.06226046,1.79073002,-22.78937735,0.00000000,0.00000000,250.00000000
-0.12426850,-8.00506995,-14.63008681,0.00000000,0.00000000,250.00000000
0.27315568,9.59330367,-14.11207569,250.00000000,0.00000000,0.00000000
-0.11302578,-2.26770219,19.96062865,0.00000000,250.00000000,0.00000000
-0.03142540,23.70285292,-14.08918538,250.00000000,0.00000000,0.00000000
0.05929330,-9.46436453,-22.46750215,0.00000000,0.00000000,250.00000000
-0.02290494,28.34400731,-20.02692739,250.00000000,0.00000000,0.00000000
0.02417931,15.02017710,-29.25464973,0.00000000,0.00000000,250.00000000
0.15186238,-10.54496358,17.08692522,0.00000000,250.00000000,0.00000000
0.02534627,13.62181208,7.95684454,250.00000000,0.00000000,0.00000000
-0.10332668,13.57468429,-20.50172301,250.00000000,0.00000000,0.00000000
0.04453853,-4.02146424,24.15925886,0.00000000,250.00000000,0.00000000
0.02441363,12.77028594,3.16114574,250.00000000,0.00000000,0.00000000
0.07025811,-8.33755446,2.43821040,0.00000000,250.00000000,0.00000000
-0.12910260,25.15026289,-27.70614434,250.00000000,0.00000000,0.00000000
0.02278918,39.42667108,-6.53115641,250.00000000,0.00000000,0.00000000
0.08710299,29.99653308,-25.01685751,250.00000000,0.00000000,0.00000000
-0.00434155,-31.16304927,-1.74226244,0.00000000,0.00000000,250.00000000
0.00300950,0.85874394,14.08549622,0.00000000,250.00000000,0.00000000
-0.06831460,-23.14196998,14.87422138,0.00000000,250.00000000,0.00000000
0.00037107,37.80547059,24.74612318,250.00000000,0.00000000,0.00000000
0.08773066,-30.22326108,16.20779036,0.00000000,250.00000000,0.00000000
0.05441745,43.76806679,-20.76434378,250.00000000,0.00000000,0.00000000
0.17635169,22.75876315,-12.44099050,250.00000000,0.00000000,0.00000000
0.02567658,4.12707603,-28.41077192,0.00000000,0.00000000,250.00000000
-0.10209691,7.60901440,-3.54915199,250.00000000,0.00000000,0.00000000
0.08159215,-19.82367448,34.50287975,0.00000000,250.00000000,0.00000000
-0.16847401,-24.47358496,-6.03555950,0.00000000,0.00000000,250.00000000
-0.14263763,14.98345035,17.05291638,250.00000000,0.00000000,0.00000000
0.05577174,-2.31549212,-31.26800284,0.00000000,0.00000000,250.00000000
-0.00458306,-18.99968698,2.97288944,0.00000000,250.00000000,0.00000000
0.00025771,3.28185601,4.07441084,250.00000000,0.00000000,0.00000000
-0.12435893,-41.00102446,14.95853229,0.00000000,250.00000000,0.00000000
-0.03215234,1.09055473,-6.06433691,0.00000000,0.00000000,250.00000000
0.02217853,-12.30912018,-7.13822567,0.00000000,0.00000000,250.00000000
-0.00359892,-9.51570933,-9.45010307,0.00000000,0.00000000,250.00000000
-0.03532042,8.03920253,19.48564480,0.00000000,250.00000000,0.00000000
-0.00091951,-20.99252862,-5.51179131,0.00000000,0.00000000,250.00000000
0.21740738,4.34158558,-3.85223956,250.00000000,0.00000000,0.00000000
0.21899030,-12.30467374,17.85909510,0.00000000,250.00000000,0.00000000
-0.11465256,-9.90435647,-12.63844463,0.00000000,0.00000000,250.00000000
-0.11704526,16.65618644,-13.77536104,250.00000000,0.00000000,0.00000000
0.31156298,-44.14712130,-10.69231995,0.00000000,0.00000000,250.00000000
0.03479227,18.07846636,20.30165904,250.00000000,0.00000000,0.00000000
0.13574720,12.30192881,22.58205256,250.00000000,0.00000000,0.00000000
-0.17209087,8.92907221,1.28774179,250.00000000,0.00000000,0.00000000
0.09130758,13.17051146,-5.60197581,250.00000000,0.00000000,0.00000000
0.05695698,-26.36604023,34.90024883,0.00000000,250.00000000,0.00000000
-0.05076479,-44.99353247,17.83024965,0.00000000,250.00000000,0.00000000
0.08926833,-31.10781862,3.22768027,0.00000000,250.00000000,0.00000000
-0.21642043,6.65973552,-35.38536070,0.00000000,0.00000000,250.00000000
0.06138483,28.41433085,-1.94740865,250.00000000,0.00000000,0.00000000
-0.05219179,-2.92729325,6.28289343,0.00000000,250.00000000,0.00000000
-0.05027453,-26.15160675,9.66588674,0.00000000,250.00000000,0.00000000
-0.10511320,14.78030007,-9.05218416,250.00000000,0.00000000,0.00000000
-0.06543883,18.87209680,-5.52860485,250.00000000,0.00000000,0.00000000
0.06114808,22.48416287,39.36660811,250.00000000,0.00000000,0.00000000
-0.04089510,-19.95547496,1.03023585,0.00000000,250.00000000,0.00000000
0.00988198,-48.24626853,52.74462156,0.00000000,250.00000000,0.00000000
0.09845686,-5.83145600,49.82517924,0.00000000,250.00000000,0.00000000
-0.05501277,19.15551638,40.89907065,0.00000000,250.00000000,0.00000000
-0.06012711,21.86325922,-19.73028822,250.00000000,0.00000000,0.00000000
0.07706938,19.65399438,-3.94621414,250.00000000,0.00000000,0.00000000
0.11922042,21.38989265,-48.85427708,0.00000000,0.00000000,250.00000000
0.12336020,17.32602323,56.90342366,0.00000000,250.00000000,0.00000000
0.11868928,-26.17820920,6.02111184,0.00000000,250.00000000,0.00000000
0.30039830,45.08434887,17.82438049,250.00000000,0.00000000,0.00000000
0.20841144,1.55511897,-25.33060982,0.00000000,0.00000000,250.00000000
0.16497328,-8.77052882,-17.26259186,0.00000000,0.00000000,250.00000000
-0.02154430,-10.67951843,20.81390429,0.00000000,250.00000000,0.00000000
-0.05724040,-24.55721124,-24.78606385,0.00000000,0.00000000,250.00000000
0.06740122,-9.49073730,-4.98583092,0.00000000,0.00000000,250.00000000
-0.05936081,30.19117691,-16.00912564,250.00000000,0.00000000,0.00000000
-0.01342132,21.43637768,-10.46622603,250.00000000,0.00000000,0.00000000
0.09334455,-29.23474710,-16.02255052,0.00000000,0.00000000,250.00000000
-0.11312497,25.69704180,-14.86286620,250.00000000,0.00000000,0.00000000
-0.00552923,-6.32470980,-8.06233573,0.00000000,0.00000000,250.00000000
0.05526762,14.10149238,6.43925411,250.00000000,0.00000000,0.00000000
-0.19093640,5.16436346,-55.33453490,0.00000000,0.00000000,250.00000000
0.08987935,-5.81280140,-17.95741340,0.00000000,0.00000000,250.00000000
-0.00923563,-27.18867754,-11.13130693,0.00000000,0.00000000,250.00000000
0.03772969,2.65754578,-6.18286882,0.00000000,0.00000000,250.00000000
-0.29467574,-29.58055243,0.99984738,0.00000000,250.00000000,0.00000000
-0.07618028,-8.54430758,2.17913755,0.00000000,250.00000000,0.00000000
-0.09244985,24.17285631,18.68482797,250.00000000,0.00000000,0.00000000
0.10654309,-7.93821596,-42.64707197,0.00000000,0.00000000,250.00000000
-0.03734801,-9.75156976,-21.99817142,0.00000000,0.00000000,250.00000000
-0.04600164,2.84298250,-5.48827045,0.00000000,0.00000000,250.00000000
-0.04653888,-34.27385675,-23.27208273,0.00000000,0.00000000,250.00000000
0.01709951,-15.43778667,14.57823087,0.00000000,250.00000000,0.00000000
-0.01972047,8.82636855,-9.25523768,250.00000000,0.00000000,0.00000000
-0.07172337,-8.24546986,24.89393400,0.00000000,250.00000000,0.00000000
0.00998461,-20.38311225,-31.40106514,0.00000000,0.00000000,250.00000000
-0.09688034,-6.44422583,3.22191752,0.00000000,250.00000000,0.00000000
0.15336668,1.11506541,-21.62350383,0.00000000,0.00000000,250.00000000
-0.11170873,-5.55281394,-22.76924958,0.00000000,0.00000000,250.00000000
0.09943686,-0.85342282,-9.71754748,0.00000000,0.00000000,250.00000000
0.15313711,-8.70516583,-18.94692597,0.00000000,0.00000000,250.00000000
-0.00245205,11.10118351,-2.52740870,250.00000000,0.00000000,0.00000000
0.03677206,37.51741906,12.13510468,250.00000000,0.00000000,0.00000000
0.04834221,-13.61591730,-20.75024240,0.00000000,0.00000000,250.00000000
0.07092081,14.83305586,-2.39679920,250.00000000,0.00000000,0.00000000
-0.08183427,12.56129685,-19.33521671,250.00000000,0.00000000,0.00000000
-0.16450853,-24.16731325,30.21370149,0.00000000,250.00000000,0.00000000
-0.10918516,4.26504660,-4.06970583,250.00000000,0.00000000,0.00000000
-0.03214327,8.97923359,10.39905560,250.00000000,0.00000000,0.00000000
0.08853244,15.35609479,3.40359386,250.00000000,0.00000000,0.00000000
0.03431372,5.70375267,3.12642209,250.00000000,0.00000000,0.00000000
0.02114497,33.44327644,-6.14615848,250.00000000,0.00000000,0.00000000
-0.07894547,-30.15484206,20.05656546,0.00000000,250.00000000,0.00000000
0.07507646,-27.49132333,-20.06363292,0.00000000,0.00000000,250.00000000
0.15814491,-33.61677826,17.66930796,0.00000000,250.00000000,0.00000000
0.13683146,-19.68753135,-15.40795111,0.00000000,0.00000000,250.00000000
0.12275145,-35.33456473,16.45199353,0.00000000,250.00000000,0.00000000
0.05907484,-9.03911455,20.24678033,0.00000000,250.00000000,0.00000000
0.03818131,-15.60592387,-22.39393936,0.00000000,0.00000000,250.00000000
0.05912358,-19.69782672,4.57383608,0.00000000,250.00000000,0.00000000
0.02355113,-52.99864899,45.08037568,0.00000000,250.00000000,0.00000000
-0.07255339,17.66911280,30.81175975,250.00000000,0.00000000,0.00000000
0.11859037,3.29764921,-20.13137109,0.00000000,0.00000000,250.00000000
0.27510757,-13.66770540,-18.53984927,0.00000000,0.00000000,250.00000000
0.13781187,11.59581219,6.63567954,250.00000000,0.00000000,0.00000000
0.02406159,-20.16667887,37.13006054,0.00000000,250.00000000,0.00000000
-0.18579020,13.28560121,8.23717222,250.00000000,0.00000000,0.00000000
0.10289176,12.43056826,29.59444742,0.00000000,250.00000000,0.00000000
-0.04836884,-24.18212674,15.72278186,0.00000000,250.00000000,0.00000000
0.07728209,14.60811119,4.67687266,250.00000000,0.00000000,0.00000000
0.12692141,19.19750978,-0.93251864,250.00000000,0.00000000,0.00000000
0.01548711,-29.82678727,6.07295246,0.00000000,250.00000000,0.00000000
0.08560221,20.02154862,-9.58849285,250.00000000,0.00000000,0.00000000
-0.03709963,2.48157587,17.42179435,0.00000000,250.00000000,0.00000000
0.05009637,33.43129506,36.49730923,250.00000000,0.00000000,0.00000000
0.04850043,15.60263711,1.62927119,250.00000000,0.00000000,0.00000000
0.04976031,-14.10422378,28.25454500,0.00000000,250.00000000,0.00000000
-0.05318453,23.32038473,12.16920162,250.00000000,0.00000000,0.00000000
0.15538569,-5.34800695,11.38813155,0.00000000,250.00000000,0.00000000
0.24026043,29.58346266,7.02577139,250.00000000,0.00000000,0.00000000
0.01518343,18.30692274,-18.84176551,250.00000000,0.00000000,0.00000000
-0.02729569,28.44425682,19.32163153,250.00000000,0.00000000,0.00000000
0.01793644,-19.35020546,-5.26167205,0.00000000,0.00000000,250.00000000
-0.06892877,-8.86569028,-32.09548180,0.00000000,0.00000000,250.00000000
-0.02593225,2.03684539,-16.03991790,0.00000000,0.00000000,250.00000000
-0.04046262,18.28384474,-6.94740203,250.00000000,0.00000000,0.00000000
-0.05811091,-19.52532926,20.81737957,0.00000000,250.00000000,0.00000000
0.07829400,51.79055427,-5.13386214,250.00000000,0.00000000,0.00000000
0.03426733,-12.23682974,-15.13547952,0.00000000,0.00000000,250.00000000
-0.07954226,4.93423187,-25.96587686,0.00000000,0.00000000,250.00000000
-0.17092676,4.14791304,15.61913085,0.00000000,250.00000000,0.00000000
0.12984666,-14.39008305,45.37854620,0.00000000,250.00000000,0.00000000
0.08463941,-54.91461356,-23.40843579,0.00000000,0.00000000,250.00000000
-0.16932993,-15.18621623,-27.65891674,0.00000000,0.00000000,250.00000000
-0.17794718,-8.47904560,-14.21232019,0.00000000,0.00000000,250.00000000
0.09093653,46.97991537,-8.39789196,250.00000000,0.00000000,0.00000000
-0.17162531,-22.82468201,35.70624151,0.00000000,250.00000000,0.00000000
0.18574099,33.94351312,-20.13033608,250.00000000,0.00000000,0.00000000
-0.07019920,16.66905299,-8.32272518,250.00000000,0.00000000,0.00000000
-0.10195626,-4.60454595,10.84953720,0.00000000,250.00000000,0.00000000
0.10870700,-0.97106435,-32.64334522,0.00000000,0.00000000,250.00000000
-0.11293679,-19.62090933,-19.82818139,0.00000000,0.00000000,250.00000000
0.04094844,0.25108237,2.38398349,0.00000000,250.00000000,0.00000000
-0.15732032,17.50527601,-7.34674493,250.00000000,0.00000000,0.00000000
-0.05655524,-15.33227305,6.51409140,0.00000000,250.00000000,0.00000000
-0.00851161,-10.53198367,30.33926968,0.00000000,250.00000000,0.00000000
0.07986187,-0.35536688,11.58351422,0.00000000,250.00000000,0.00000000
0.07337127,4.14933412,10.87575293,0.00000000,250.00000000,0.00000000
-0.07114419,-23.14581323,22.98147260,0.00000000,250.00000000,0.00000000
-0.06766049,3.82242154,1.60422795,250.00000000,0.00000000,0.00000000
0.18759392,35.17559450,-46.83872759,250.00000000,0.00000000,0.00000000
-0.07037661,18.20223066,-17.31741974,250.00000000,0.00000000,0.00000000
-0.09786670,27.67861809,-14.28616943,250.00000000,0.00000000,0.00000000
-0.14493098,-5.67139145,3.94635535,0.00000000,250.00000000,0.00000000
-0.15226127,-37.13754313,15.39747013,0.00000000,250.00000000,0.00000000
-0.01467026,-30.29714675,-9.77952367,0.00000000,0.00000000,250.00000000
-0.09687575,-13.71265899,-2.12388527,0.00000000,0.00000000,250.00000000
0.01980981,-0.29625721,19.68819313,0.00000000,250.00000000,0.00000000
0.06691995,-4.30140221,8.81917395,0.00000000,250.00000000,0.00000000
0.04891760,4.48033985,7.92036220,250.00000000,0.00000000,0.00000000
0.08119422,3.59151118,-0.31194902,250.00000000,0.00000000,0.00000000
-0.03179860,-11.64627931,-19.01482765,0.00000000,0.00000000,250.00000000
-0.02362839,31.03266216,-3.37249217,250.00000000,0.00000000,0.00000000
-0.06512741,4.07380798,40.30309407,0.00000000,250.00000000,0.00000000
0.01766232,43.30236422,-0.14267619,250.00000000,0.00000000,0.00000000
0.09285540,2.76457361,5.45041139,0.00000000,250.00000000,0.00000000
-0.13486061,-22.32789796,9.98562055,0.00000000,250.00000000,0.00000000
-0.08951766,-2.29301563,-35.97573264,0.00000000,0.00000000,250.00000000
0.06577221,7.04827688,3.92423400,250.00000000,0.00000000,0.00000000
-0.05150328,-16.24036104,-18.77113970,0.00000000,0.00000000,250.00000000
0.12460637,-1.25968932,-38.73912008,0.00000000,0.00000000,250.00000000
0.10759358,-11.96789878,11.65084043,0.00000000,250.00000000,0.00000000
-0.00511586,-27.16478004,-17.32687639,0.00000000,0.00000000,250.00000000
-0.12386636,14.28797453,44.74585628,0.00000000,250.00000000,0.00000000
-0.00923188,4.10250684,0.28115508,250.00000000,0.00000000,0.00000000
-0.05116922,6.17137710,16.53493957,0.00000000,250.00000000,0.00000000
-0.16873731,-2.11752662,-4.99674232,0.00000000,0.00000000,250.00000000
0.06698301,-34.86129582,-20.39876148,0.00000000,0.00000000,250.00000000
0.07317404,-18.05756020,25.39608583,0.00000000,250.00000000,0.00000000
-0.04198635,-16.28033372,4.17280753,0.00000000,250.00000000,0.00000000
0.21052857,-4.44469101,-30.67193864,0.00000000,0.00000000,250.00000000
0.19770718,-45.89689449,-24.84093289,0.00000000,0.00000000,250.00000000
0.11134913,-21.71796316,8.01792109,0.00000000,250.00000000,0.00000000
0.18360082,-17.25083366,4.12991686,0.00000000,250.00000000,0.00000000
-0.01870097,-24.59136786,22.08125565,0.00000000,250.00000000,0.00000000
0.05779068,-36.00425009,5.01507534,0.00000000,250.00000000,0.00000000
-0.12170560,0.11065304,2.86207386,0.00000000,250.00000000,0.00000000
-0.06174846,-14.36891504,-30.30561998,0.00000000,0.00000000,250.00000000
-0.04535365,23.41546111,28.55256933,250.00000000,0.00000000,0.00000000
0.04059668,15.77232469,22.52618335,250.00000000,0.00000000,0.00000000
-0.02681568,-25.81569559,-17.64557082,0.00000000,0.00000000,250.00000000
-0.02016583,-26.95276112,-18.64125269,0.00000000,0.00000000,250.00000000
-0.00669970,-13.18019066,-14.14241540,0.00000000,0.00000000,250.00000000
0.00925316,-21.26677657,10.48812524,0.00000000,250.00000000,0.00000000
0.03257823,-9.54150702,6.76048053,0.00000000,250.00000000,0.00000000
0.14738855,9.21267697,-14.96746249,250.00000000,0.00000000,0.00000000
-0.07474087,46.10641474,-24.28214996,250.00000000,0.00000000,0.00000000
0.02640112,2.63943641,-16.49557389,0.00000000,0.00000000,250.00000000
0.09367114,8.32378606,23.12282986,0.00000000,250.00000000,0.00000000
0.01214129,28.26153654,-17.71392689,250.00000000,0.00000000,0.00000000
-0.02020345,-14.89818598,12.08787217,0.00000000,250.00000000,0.00000000
-0.00409685,1.61021100,6.19086694,0.00000000,250.00000000,0.00000000
0.15063317,-11.86069038,-41.89445481,0.00000000,0.00000000,250.00000000
-0.05586111,-19.29572166,-24.32455980,0.00000000,0.00000000,250.00000000
0.16814499,29.91193790,0.60891122,250.00000000,0.00000000,0.00000000
0.09851943,-6.53684835,-17.83123301,0.00000000,0.00000000,250.00000000
0.10446543,18.26780402,-9.47695930,250.00000000,0.00000000,0.00000000
0.08027708,1.63454210,-6.81321780,0.00000000,0.00000000,250.00000000
-0.00306192,-3.10089025,-11.82140329,0.00000000,0.00000000,250.00000000
-0.06924869,-7.74911044,-20.99851762,0.00000000,0.00000000,250.00000000
0.18897973,-3.51348804,2.98281695,0.00000000,250.00000000,0.00000000
0.15711879,33.29750049,14.19167416,250.00000000,0.00000000,0.00000000
0.05301359,8.38927063,32.34357491,0.00000000,250.00000000,0.00000000
0.23605980,36.43775812,11.19675002,250.00000000,0.00000000,0.00000000
-0.03538005,6.40509161,-25.72136354,0.00000000,0.00000000,250.00000000
-0.01177239,-3.12047002,40.60776071,0.00000000,250.00000000,0.00000000
-0.05427032,-0.71784527,10.19661823,0.00000000,250.00000000,0.00000000
0.06336021,-9.60138130,28.55405459,0.00000000,250.00000000,0.00000000
0.03763312,-16.13655317,37.00992145,0.00000000,250.00000000,0.00000000
0.07081437,-0.89534981,19.39563742,0.00000000,250.00000000,0.00000000
0.03125072,-10.81142931,13.90984430,0.00000000,250.00000000,0.00000000
0.02811360,9.00104245,-0.16192093,250.00000000,0.00000000,0.00000000
0.15839405,3.03046990,1.68178475,250.00000000,0.00000000,0.00000000
-0.10291662,-4.23543934,8.28833419,0.00000000,250.00000000,0.00000000
-0.18651798,-27.88259384,22.89110054,0.00000000,250.00000000,0.00000000
0.04341713,16.64367832,9.13217709,250.00000000,0.00000000,0.00000000
0.12731771,-4.67463378,26.32534950,0.00000000,250.00000000,0.00000000
-0.04889003,-23.77782887,-30.00310037,0.00000000,0.00000000,250.00000000
0.09269358,-23.78851646,5.95603262,0.00000000,250.00000000,0.00000000
-0.01162652,-17.14622031,32.55436250,0.00000000,250.00000000,0.00000000
0.12932516,-0.27749640,0.07102452,0.00000000,250.00000000,0.00000000
-0.04079292,11.03594791,-1.78419102,250.00000000,0.00000000,0.00000000
0.07737145,-1.24792780,3.26100055,0.00000000,250.00000000,0.00000000
0.17772366,-22.73469582,21.28349950,0.00000000,250.00000000,0.00000000
0.03678074,-7.83430508,-12.56929823,0.00000000,0.00000000,250.00000000
0.01935918,-11.33610525,20.50680370,0.00000000,250.00000000,0.00000000
-0.03294373,11.89463402,-38.89975434,0.00000000,0.00000000,250.00000000
0.02440224,-13.49845670,39.69472744,0.00000000,250.00000000,0.00000000
-0.20161257,-21.69355613,11.76178967,0.00000000,250.00000000,0.00000000
0.02647301,-5.41982774,12.10996889,0.00000000,250.00000000,0.00000000
0.03262196,3.95109947,22.69146643,0.00000000,250.00000000,0.00000000
0.07352526,4.87658344,3.67588272,250.00000000,0.00000000,0.00000000
0.07729377,39.28602992,25.52110556,250.00000000,0.00000000,0.00000000
-0.01865843,31.74797388,-13.30187587,250.00000000,0.00000000,0.00000000
0.06159129,-37.77940631,8.01175616,0.00000000,250.00000000,0.00000000
-0.07344656,-8.32501879,-5.24275032,0.00000000,0.00000000,250.00000000
0.09388900,-14.04767897,14.32830879,0.00000000,250.00000000,0.00000000
-0.04309912,10.29883144,-39.88138587,0.00000000,0.00000000,250.00000000
0.03128388,25.15456461,-7.29862717,250.00000000,0.00000000,0.00000000
-0.06632721,-4.67948788,14.27064567,0.00000000,250.00000000,0.00000000
-0.19438357,16.84979480,1.13021684,250.00000000,0.00000000,0.00000000
-0.01659304,7.75398039,-14.59086132,0.00000000,0.00000000,250.00000000
0.00406881,10.69325321,2.81694781,250.00000000,0.00000000,0.00000000
-0.03629137,2.89008824,-5.91802814,0.00000000,0.00000000,250.00000000
-0.00973333,33.27132868,-9.32760560,250.00000000,0.00000000,0.00000000
-0.15423738,-18.20472129,-27.21751286,0.00000000,0.00000000,250.00000000
0.02911762,-4.61177723,28.38746469,0.00000000,250.00000000,0.00000000
-0.12433276,18.44626686,-19.95291316,250.00000000,0.00000000,0.00000000
0.34414044,11.71726412,-40.13037853,0.00000000,0.00000000,250.00000000
-0.07311760,32.50427484,18.13747959,250.00000000,0.00000000,0.00000000
0.00307048,3.35443223,25.58960508,0.00000000,250.00000000,0.00000000
0.12916563,16.55433989,1.31979337,250.00000000,0.00000000,0.00000000
-0.23381642,-7.40274886,14.52043436,0.00000000,250.00000000,0.00000000
0.14161110,15.73948077,-22.61107654,250.00000000,0.00000000,0.00000000
0.08177771,11.47914118,-10.49222934,250.00000000,0.00000000,0.00000000
-0.02752254,-21.92065007,-0.87234047,0.00000000,0.00000000,250.00000000
0.00643781,18.60379046,-3.34424694,250.00000000,0.00000000,0.00000000
-0.05093780,-4.38263123,12.59176306,0.00000000,250.00000000,0.00000000
-0.17702414,-19.18127712,54.18879453,0.00000000,250.00000000,0.00000000
-0.02736023,17.33937943,27.36882250,250.00000000,0.00000000,0.00000000
-0.12280179,33.92162125,24.60460359,250.00000000,0.00000000,0.00000000
0.02826792,-3.15896746,-2.49291252,0.00000000,0.00000000,250.00000000
0.19843815,9.73833434,6.25492538,250.00000000,0.00000000,0.00000000
0.04622931,-0.78380258,-0.04477505,0.00000000,250.00000000,0.00000000
-0.04655626,21.90816142,27.27868127,250.00000000,0.00000000,0.00000000
0.04620197,-13.02856122,-13.51954564,0.00000000,0.00000000,250.00000000
0.11637597,0.14625559,7.38124390,0.00000000,250.00000000,0.00000000
0.01366359,-12.03305698,-13.48735372,0.00000000,0.00000000,250.00000000
-0.00131099,20.01723710,20.90861473,250.00000000,0.00000000,0.00000000
-0.08051040,-3.98272131,-33.58992719,0.00000000,0.00000000,250.00000000
0.03494535,6.52948640,-6.21734750,250.00000000,0.00000000,0.00000000
-0.00043557,-23.42193252,23.60624069,0.00000000,250.00000000,0.00000000
0.19365599,-20.42434714,1.05973432,0.00000000,250.00000000,0.00000000
0.03550328,-15.42314107,-4.99835722,0.00000000,0.00000000,250.00000000
-0.11758013,30.70007163,-36.67001495,250.00000000,0.00000000,0.00000000
-0.12730129,-22.51310178,5.61346492,0.00000000,250.00000000,0.00000000
-0.01571851,-16.35954341,28.55212131,0.00000000,250.00000000,0.00000000
0.08654450,-29.71159413,-3.93041085,0.00000000,0.00000000,250.00000000
0.17938678,16.57302536,4.11820517,250.00000000,0.00000000,0.00000000
0.08005583,-1.03117686,6.77512322,0.00000000,250.00000000,0.00000000
-0.02826984,-23.22978425,-8.17827830,0.00000000,0.00000000,250.00000000
-0.01759170,-5.78468794,-23.91291068,0.00000000,0.00000000,250.00000000
-0.08282396,6.24789397,2.16818800,250.00000000,0.00000000,0.00000000
0.09512580,16.86292397,70.12474898,0.00000000,250.00000000,0.00000000
0.03788083,7.92581923,18.27733177,0.00000000,250.00000000,0.00000000
-0.11296124,-19.64371505,26.13326509,0.00000000,250.00000000,0.00000000
-0.04466592,-11.62529458,25.67353337,0.00000000,250.00000000,0.00000000
-0.02478661,-28.77052764,14.52059810,0.00000000,250.00000000,0.00000000
0.20170883,-23.45355934,-0.35765572,0.00000000,250.00000000,0.00000000
-0.10389927,8.20607412,16.89431083,0.00000000,250.00000000,0.00000000
0.08358414,2.43352362,-3.71421442,250.00000000,0.00000000,0.00000000
-0.03371385,-12.31479439,18.90482362,0.00000000,250.00000000,0.00000000
0.03957640,-13.19092863,30.08739626,0.00000000,250.00000000,0.00000000
-0.13460530,22.91053433,-23.05737873,250.00000000,0.00000000,0.00000000
0.01640461,10.52788822,4.01719381,250.00000000,0.00000000,0.00000000
0.02823719,1.88742583,24.20282764,0.00000000,250.00000000,0.00000000
0.06507069,-13.90817052,-13.66091780,0.00000000,0.00000000,250.00000000
-0.03750158,-26.25557342,3.48418113,0.00000000,250.00000000,0.00000000
-0.01776135,16.47998970,35.07550629,0.00000000,250.00000000,0.00000000
0.05145045,-13.25363754,-30.96895139,0.00000000,0.00000000,250.00000000
0.08163571,31.33296407,30.81934382,250.00000000,0.00000000,0.00000000
0.05982331,-7.66789290,2.60993297,0.00000000,250.00000000,0.00000000
-0.04964799,-5.26737663,-27.73568350,0.00000000,0.00000000,250.00000000
0.01726008,11.91563392,12.07873578,250.00000000,0.00000000,0.00000000
-0.01110629,14.60201413,-37.47699096,0.00000000,0.00000000,250.00000000
-0.28370008,-16.76236524,23.13076207,0.00000000,250.00000000,0.00000000
-0.11112936,10.86571054,-11.00816379,250.00000000,0.00000000,0.00000000
-0.07064495,-29.47261218,-27.14029722,0.00000000,0.00000000,250.00000000
0.02440942,5.68937161,2.43294021,250.00000000,0.00000000,0.00000000
0.06688640,6.88130795,25.99708284,0.00000000,250.00000000,0.00000000
-0.15657126,0.40740877,-26.95959616,0.00000000,0.00000000,250.00000000
0.11506292,10.40720546,0.88866876,250.00000000,0.00000000,0.00000000
-0.02970295,-3.92824371,22.80352054,0.00000000,250.00000000,0.00000000
0.03344112,-15.60511856,15.67066265,0.00000000,250.00000000,0.00000000
0.08041572,15.26093778,30.13712735,0.00000000,250.00000000,0.00000000
0.08315249,17.10876194,-10.06723674,250.00000000,0.00000000,0.00000000
-0.00754868,9.01956534,-10.35872682,250.00000000,0.00000000,0.00000000
0.08487937,13.84406015,0.48676628,250.00000000,0.00000000,0.00000000
-0.04317120,11.73923396,4.42144761,250.00000000,0.00000000,0.00000000
0.00483686,-23.05144833,10.98557039,0.00000000,250.00000000,0.00000000
-0.04079903,-9.27999685,4.86172145,0.00000000,250.00000000,0.00000000
-0.05007197,0.47131491,35.14161461,0.00000000,250.00000000,0.00000000
-0.04348867,5.00095885,-20.07821427,0.00000000,0.00000000,250.00000000
0.04228679,-6.73712740,13.34288792,0.00000000,250.00000000,0.00000000
0.06046920,-1.71578430,28.69934231,0.00000000,250.00000000,0.00000000
-0.05870361,2.03449997,4.52396281,0.00000000,250.00000000,0.00000000
-0.01065075,24.72589373,-1.08138442,250.00000000,0.00000000,0.00000000
0.16134256,0.87003074,5.25789612,0.00000000,250.00000000,0.00000000
-0.06147505,12.37608830,-2.37893028,250.00000000,0.00000000,0.00000000
-0.06603158,-18.56455372,-6.28523917,0.00000000,0.00000000,250.00000000
-0.06385973,25.43776285,-7.74470664,250.00000000,0.00000000,0.00000000
-0.06799982,13.41489500,-18.05724122,250.00000000,0.00000000,0.00000000
-0.09617850,6.13101807,6.14081046,250.00000000,0.00000000,0.00000000
0.04843960,19.91633001,19.27298077,250.00000000,0.00000000,0.00000000
0.00613815,65.46829047,5.84768463,250.00000000,0.00000000,0.00000000
-0.11260058,-18.52254415,-7.51574634,0.00000000,0.00000000,250.00000000
0.04191407,27.45725124,-19.38704063,250.00000000,0.00000000,0.00000000
0.00564798,22.90611883,-17.33179813,250.00000000,0.00000000,0.00000000
0.00160396,-14.60733573,-25.65891212,0.00000000,0.00000000,250.00000000
0.06417410,-1.95043869,12.10166105,0.00000000,250.00000000,0.00000000
-0.02222622,-13.28298440,23.09014977,0.00000000,250.00000000,0.00000000
-0.06966178,3.47705749,-10.39426086,0.00000000,0.00000000,250.00000000
0.03258027,-9.79958122,-4.52085523,0.00000000,0.00000000,250.00000000
0.19732592,-20.22383647,17.10979557,0.00000000,250.00000000,0.00000000
0.06238779,-21.65776309,-25.09081977,0.00000000,0.00000000,250.00000000
0.02699127,-18.39581081,-3.36936836,0.00000000,0.00000000,250.00000000
0.09366771,-18.76357998,15.78042113,0.00000000,250.00000000,0.00000000
