-0.32383607,-0.67065765,3.87302170,0.00000000,0.00000000,250.00000000
-0.67034559,-1.02433790,5.80452047,0.00000000,0.00000000,250.00000000
-0.04026561,0.82278148,8.74682948,0.00000000,250.00000000,0.00000000
-1.98679865,-0.24518071,1.72141758,250.00000000,0.00000000,0.00000000
1.59553661,-1.66588114,0.88668981,250.00000000,0.00000000,0.00000000
-0.03748810,-0.59182252,5.13347782,0.00000000,0.00000000,250.00000000
2.12398475,0.40318023,8.61425069,0.00000000,250.00000000,0.00000000
-0.46826274,-0.18567765,1.87625475,250.00000000,0.00000000,0.00000000
0.07330147,-0.38604219,9.48677352,0.00000000,250.00000000,0.00000000
0.15014520,2.40946728,7.57217939,0.00000000,250.00000000,0.00000000
-0.42211238,-1.52182067,8.10235542,0.00000000,250.00000000,0.00000000
2.11517200,0.48196111,4.97817161,0.00000000,0.00000000,250.00000000
-1.78473567,-0.03872712,1.04783619,250.00000000,0.00000000,0.00000000
-0.71601184,2.22039162,9.79508716,0.00000000,250.00000000,0.00000000
1.50068745,0.08520967,5.90246681,0.00000000,0.00000000,250.00000000
2.39357422,-0.00846760,7.72888354,0.00000000,250.00000000,0.00000000
0.02126390,1.88869205,2.23480437,250.00000000,0.00000000,0.00000000
-0.57439952,1.37555201,6.56740422,0.00000000,0.00000000,250.00000000
0.23924049,-2.07821069,0.93744023,250.00000000,0.00000000,0.00000000
2.21163981,-0.21803160,9.66975048,0.00000000,250.00000000,0.00000000
2.15405792,-0.64349685,5.58940153,0.00000000,0.00000000,250.00000000
1.49685527,0.06904378,2.16266645,250.00000000,0.00000000,0.00000000
1.19191550,1.83709690,2.75390618,250.00000000,0.00000000,0.00000000
-0.93400751,-1.28246616,5.74945941,0.00000000,0.00000000,250.00000000
1.18645530,-1.01383957,9.91924669,0.00000000,250.00000000,0.00000000
-1.57209290,0.97064517,5.82872225,0.00000000,0.00000000,250.00000000
-0.04105992,0.88602275,1.10330127,250.00000000,0.00000000,0.00000000
0.22518330,-1.56656546,3.29094281,0.00000000,0.00000000,250.00000000
-1.34307675,1.41397192,3.58355687,0.00000000,0.00000000,250.00000000
-0.00463184,-2.17300971,7.67212515,0.00000000,250.00000000,0.00000000
0.08412898,-0.74476826,0.14588745,250.00000000,0.00000000,0.00000000
0.72168954,2.27985074,9.78727193,0.00000000,250.00000000,0.00000000
1.76072232,1.46012372,4.29109902,0.00000000,0.00000000,250.00000000
-1.30706902,1.17618762,9.61209895,0.00000000,250.00000000,0.00000000
-0.67901542,0.41513487,4.23621273,0.00000000,0.00000000,250.00000000
-2.06247390,-0.89611625,4.02006545,0.00000000,0.00000000,250.00000000
1.76976931,0.45971328,2.44533045,250.00000000,0.00000000,0.00000000
-0.29331583,-0.56356827,9.15915436,0.00000000,250.00000000,0.00000000
0.69212107,-0.29997552,9.47370655,0.00000000,250.00000000,0.00000000
1.36530968,1.74631179,2.66480980,250.00000000,0.00000000,0.00000000
0.09420639,2.06534222,4.31717750,0.00000000,0.00000000,250.00000000
-1.51044983,0.62006407,7.81353751,0.00000000,250.00000000,0.00000000
-2.35827512,-0.32950849,7.77408507,0.00000000,250.00000000,0.00000000
0.49539986,-1.33588366,6.45040046,0.00000000,0.00000000,250.00000000
-0.28487427,1.63555598,0.44813376,250.00000000,0.00000000,0.00000000
0.14108395,0.79633853,0.60515568,250.00000000,0.00000000,0.00000000
1.73603214,-0.72749656,0.46659300,250.00000000,0.00000000,0.00000000
-0.56378165,0.75249610,4.65601767,0.00000000,0.00000000,250.00000000
-1.06436676,-0.77908107,1.33863400,250.00000000,0.00000000,0.00000000
-0.67742819,-1.44751259,8.91310366,0.00000000,250.00000000,0.00000000
0.44177980,0.97084300,3.26351411,250.00000000,0.00000000,0.00000000
1.89617334,1.22957477,8.96993813,0.00000000,250.00000000,0.00000000
-1.84190835,1.51240738,6.18288819,0.00000000,0.00000000,250.00000000
-0.47222199,0.71399008,1.07505362,250.00000000,0.00000000,0.00000000
-2.10548711,0.52065084,5.87360957,0.00000000,0.00000000,250.00000000
0.93698481,0.59689167,4.28726220,0.00000000,0.00000000,250.00000000
0.58041206,0.18571793,3.34479752,0.00000000,0.00000000,250.00000000
1.49510950,0.29977835,2.95949298,250.00000000,0.00000000,0.00000000
0.18008059,2.39925761,4.73332917,0.00000000,0.00000000,250.00000000
-1.13381503,-1.69789797,8.93730856,0.00000000,250.00000000,0.00000000
2.12209497,-0.04707120,7.93050235,0.00000000,250.00000000,0.00000000
1.56772760,0.25399997,5.39107066,0.00000000,0.00000000,250.00000000
-0.97752207,1.35467452,7.93753961,0.00000000,250.00000000,0.00000000
-1.02946193,0.89506512,6.71640898,0.00000000,250.00000000,0.00000000
-1.58513875,-1.24537541,3.68088691,0.00000000,0.00000000,250.00000000
1.68284317,0.25842840,7.72572800,0.00000000,250.00000000,0.00000000
-1.50371734,1.61273212,9.96833648,0.00000000,250.00000000,0.00000000
-1.11314847,1.52039776,6.53822691,0.00000000,0.00000000,250.00000000
-0.35474430,-0.69489109,0.34180188,250.00000000,0.00000000,0.00000000
-1.56679414,-0.85990521,8.46331509,0.00000000,250.00000000,0.00000000
2.07841718,0.92698555,7.09529512,0.00000000,250.00000000,0.00000000
2.29021897,-0.51642929,2.81104574,250.00000000,0.00000000,0.00000000
-0.53878465,0.34271346,1.37421918,250.00000000,0.00000000,0.00000000
-2.21981973,0.71364163,0.99118602,250.00000000,0.00000000,0.00000000
0.69555639,-1.64595629,7.22195930,0.00000000,250.00000000,0.00000000
-0.33071742,-2.17518517,0.17868996,250.00000000,0.00000000,0.00000000
0.22389173,-0.39916818,4.93414370,0.00000000,0.00000000,250.00000000
-0.31824802,-1.62282635,7.31420961,0.00000000,250.00000000,0.00000000
1.15013272,1.52627337,1.75144731,250.00000000,0.00000000,0.00000000
-1.44190817,0.81179563,6.04659152,0.00000000,0.00000000,250.00000000
-1.13424533,0.88609494,5.07374095,0.00000000,0.00000000,250.00000000
0.73157786,-2.15795099,7.40761155,0.00000000,250.00000000,0.00000000
-1.30188867,1.54649685,9.25270839,0.00000000,250.00000000,0.00000000
-0.15065856,-0.27056853,4.86242731,0.00000000,0.00000000,250.00000000
2.05651061,-0.03527830,7.80702781,0.00000000,250.00000000,0.00000000
1.18633284,-0.96503063,5.86037847,0.00000000,0.00000000,250.00000000
-1.67385768,0.34718577,7.36679581,0.00000000,250.00000000,0.00000000
0.77706032,-0.77704190,1.23747430,250.00000000,0.00000000,0.00000000
-1.94804353,-0.68021849,1.37387376,250.00000000,0.00000000,0.00000000
0.99546196,0.34949685,7.69249850,0.00000000,250.00000000,0.00000000
-0.96694901,0.13451634,2.42036772,250.00000000,0.00000000,0.00000000
2.04827968,0.42780807,0.86279156,250.00000000,0.00000000,0.00000000
0.93187272,-0.09707594,4.42990152,0.00000000,0.00000000,250.00000000
-0.43922338,-0.67132204,7.26618830,0.00000000,250.00000000,0.00000000
-0.90876729,1.49426992,1.95396744,250.00000000,0.00000000,0.00000000
-0.38462401,-2.34405076,9.33347461,0.00000000,250.00000000,0.00000000
-1.24935783,2.10578957,8.85170368,0.00000000,250.00000000,0.00000000
-1.70961084,1.29985068,0.89746433,250.00000000,0.00000000,0.00000000
-0.03505326,1.32938558,8.30840375,0.00000000,250.00000000,0.00000000
0.16741484,-1.12498622,7.86359868,0.00000000,250.00000000,0.00000000
1.52491849,0.64974033,8.48970701,0.00000000,250.00000000,0.00000000
-0.24800889,-1.04063499,5.41688375,0.00000000,0.00000000,250.00000000
-0.63530220,-0.80975405,0.96967120,250.00000000,0.00000000,0.00000000
1.37796466,-1.96753151,1.81319462,250.00000000,0.00000000,0.00000000
-0.19725707,1.13789174,3.66440322,0.00000000,0.00000000,250.00000000
-1.29174458,1.29347173,5.10042256,0.00000000,0.00000000,250.00000000
-0.10212503,1.64771268,6.78997411,0.00000000,250.00000000,0.00000000
-0.29475453,-0.57211848,4.42933547,0.00000000,0.00000000,250.00000000
-0.31043005,-1.49948784,8.29218576,0.00000000,250.00000000,0.00000000
1.34610447,-0.17667958,9.53358637,0.00000000,250.00000000,0.00000000
-1.61190874,-0.97008195,9.39256268,0.00000000,250.00000000,0.00000000
0.65236095,0.17900994,5.75886986,0.00000000,0.00000000,250.00000000
1.66651609,-0.15762421,9.28668224,0.00000000,250.00000000,0.00000000
-2.02868616,-0.30984030,3.38967574,0.00000000,0.00000000,250.00000000
0.60049183,0.78997705,9.04005884,0.00000000,250.00000000,0.00000000
1.45204374,-0.54401590,5.75540822,0.00000000,0.00000000,250.00000000
-0.65787184,-1.99500113,7.20214555,0.00000000,250.00000000,0.00000000
-2.30256596,0.36983481,9.61821856,0.00000000,250.00000000,0.00000000
0.21056785,0.59331723,0.97232116,250.00000000,0.00000000,0.00000000
-0.97776713,1.75778902,6.41464710,0.00000000,0.00000000,250.00000000
-1.99307023,-0.97346305,6.28831479,0.00000000,0.00000000,250.00000000
-1.16020398,-1.43546803,6.94653775,0.00000000,250.00000000,0.00000000
1.46672968,1.10002919,9.37918885,0.00000000,250.00000000,0.00000000
-0.94084848,-1.75323316,6.28806999,0.00000000,0.00000000,250.00000000
-0.07285196,0.29251672,9.97446199,0.00000000,250.00000000,0.00000000
-0.93816310,1.50571376,2.80844271,250.00000000,0.00000000,0.00000000
-2.30841484,-0.41470173,2.52219332,250.00000000,0.00000000,0.00000000
0.62577944,1.61942173,5.83548405,0.00000000,0.00000000,250.00000000
-0.81133588,-0.72986333,3.72037292,0.00000000,0.00000000,250.00000000
-2.17881745,-0.61376490,1.27174081,250.00000000,0.00000000,0.00000000
-1.58579584,-0.29618677,8.90810991,0.00000000,250.00000000,0.00000000
1.91946113,1.43453388,3.75158450,0.00000000,0.00000000,250.00000000
0.05999115,0.27027639,9.85110263,0.00000000,250.00000000,0.00000000
0.20677205,-0.70602798,4.96903963,0.00000000,0.00000000,250.00000000
-1.91521042,0.99785347,4.52114668,0.00000000,0.00000000,250.00000000
1.99621071,1.37569646,3.06185467,250.00000000,0.00000000,0.00000000
1.02885451,-2.03894836,6.18605964,0.00000000,0.00000000,250.00000000
-1.54467307,-1.72878920,0.43665811,250.00000000,0.00000000,0.00000000
-1.52488937,-0.52946864,1.00901095,250.00000000,0.00000000,0.00000000
0.86863377,1.69879275,5.28494860,0.00000000,0.00000000,250.00000000
0.31616996,-0.79753790,0.94069963,250.00000000,0.00000000,0.00000000
-0.26035659,1.46501970,2.00852793,250.00000000,0.00000000,0.00000000
-1.38148995,-0.87631632,1.54606198,250.00000000,0.00000000,0.00000000
1.62612544,0.17417993,6.03332337,0.00000000,0.00000000,250.00000000
-0.88967856,-1.86924004,6.03463630,0.00000000,0.00000000,250.00000000
-0.86063595,0.16730486,6.30655242,0.00000000,0.00000000,250.00000000
0.37645695,1.84195003,1.40755134,250.00000000,0.00000000,0.00000000
2.17673425,-0.49746914,1.66886907,250.00000000,0.00000000,0.00000000
-1.40252757,-0.57970429,3.27457244,250.00000000,0.00000000,0.00000000
2.32127346,-0.36141850,7.85836501,0.00000000,250.00000000,0.00000000
1.97231296,-0.48155029,6.67519528,0.00000000,250.00000000,0.00000000
0.14009602,-1.97577281,6.36211166,0.00000000,0.00000000,250.00000000
-0.48410027,-1.30362285,3.24245468,250.00000000,0.00000000,0.00000000
-0.82979492,-1.34564641,1.43756822,250.00000000,0.00000000,0.00000000
1.21772487,0.84574180,5.55906972,0.00000000,0.00000000,250.00000000
-1.08810618,-2.09202706,3.28181022,0.00000000,0.00000000,250.00000000
-1.48443068,-0.29031354,1.04906604,250.00000000,0.00000000,0.00000000
1.36977384,0.28040584,0.73742721,250.00000000,0.00000000,0.00000000
1.06670436,0.67515258,7.57942903,0.00000000,250.00000000,0.00000000
-0.03706246,-1.89522879,7.74960368,0.00000000,250.00000000,0.00000000
1.20329472,1.52556022,4.00931238,0.00000000,0.00000000,250.00000000
0.52307272,1.50269963,3.54192569,0.00000000,0.00000000,250.00000000
-1.20143397,1.77686941,0.03224494,250.00000000,0.00000000,0.00000000
1.23765109,-0.94695842,6.06032415,0.00000000,0.00000000,250.00000000
-0.89673121,-2.01008389,8.78407470,0.00000000,250.00000000,0.00000000
-1.55377489,0.97314066,9.44985718,0.00000000,250.00000000,0.00000000
0.57345673,0.41954026,6.80518372,0.00000000,250.00000000,0.00000000
-0.86870325,-0.47864361,8.46660908,0.00000000,250.00000000,0.00000000
-2.16399348,0.92783327,1.81229074,250.00000000,0.00000000,0.00000000
-2.11292206,-0.22829530,6.19545068,0.00000000,0.00000000,250.00000000
0.46552149,-0.74534736,6.10432960,0.00000000,0.00000000,250.00000000
-1.75775875,0.94076853,5.72408622,0.00000000,0.00000000,250.00000000
0.78767237,-2.05483861,8.24654967,0.00000000,250.00000000,0.00000000
1.33417686,0.32793895,9.47825991,0.00000000,250.00000000,0.00000000
-1.26860698,-0.28869375,2.32416369,250.00000000,0.00000000,0.00000000
-0.71763199,0.61485553,6.96556341,0.00000000,250.00000000,0.00000000
-0.52797954,-0.50214911,1.25517653,250.00000000,0.00000000,0.00000000
-2.16711238,1.03953201,6.38617441,0.00000000,0.00000000,250.00000000
-0.26320553,0.32317022,1.46106635,250.00000000,0.00000000,0.00000000
2.03280873,0.25618499,7.69986802,0.00000000,250.00000000,0.00000000
-1.74416814,0.53807147,0.20651132,250.00000000,0.00000000,0.00000000
-0.33699177,1.67213802,6.47199145,0.00000000,0.00000000,250.00000000
2.25542776,-0.14274659,0.44644307,250.00000000,0.00000000,0.00000000
1.22029716,0.02301431,4.44228116,0.00000000,0.00000000,250.00000000
1.90217594,-0.80930625,6.87253879,0.00000000,250.00000000,0.00000000
-1.79426801,-1.64582674,6.51407393,0.00000000,0.00000000,250.00000000
-0.21896128,-0.39170727,4.29055941,0.00000000,0.00000000,250.00000000
-1.09445499,2.04041281,1.36873433,250.00000000,0.00000000,0.00000000
0.86939799,-0.12561654,2.56899835,250.00000000,0.00000000,0.00000000
-1.57703981,-0.82891104,2.92080639,250.00000000,0.00000000,0.00000000
0.37568184,0.59113077,1.72229868,250.00000000,0.00000000,0.00000000
-2.25422428,-0.85295217,5.60986916,0.00000000,0.00000000,250.00000000
-0.52739653,-1.60319138,9.09989246,0.00000000,250.00000000,0.00000000
0.25125257,-1.70337038,5.76831987,0.00000000,0.00000000,250.00000000
0.21782286,-2.06112358,4.80466425,0.00000000,0.00000000,250.00000000
-0.15016899,-0.66871641,6.11074172,0.00000000,0.00000000,250.00000000
1.86546724,-0.54738747,0.37169975,250.00000000,0.00000000,0.00000000
1.34946214,0.41688655,9.76034313,0.00000000,250.00000000,0.00000000
-0.59470217,1.27377327,8.38893744,0.00000000,250.00000000,0.00000000
-2.28688392,-0.56298720,7.31084350,0.00000000,250.00000000,0.00000000
-0.62545534,-1.69845759,4.45892556,0.00000000,0.00000000,250.00000000
0.57981958,0.92659090,8.70104530,0.00000000,250.00000000,0.00000000
-0.71011609,0.31816130,3.07943943,250.00000000,0.00000000,0.00000000
0.18694549,-1.40116400,7.47428890,0.00000000,250.00000000,0.00000000
0.90411867,-1.96817731,8.84029735,0.00000000,250.00000000,0.00000000
0.49114713,0.62065810,7.88487900,0.00000000,250.00000000,0.00000000
1.54910447,0.05653687,1.76420591,250.00000000,0.00000000,0.00000000
-0.01665864,0.82869603,8.30809428,0.00000000,250.00000000,0.00000000
-1.30384304,-1.14151446,4.24546989,0.00000000,0.00000000,250.00000000
-0.60545411,-0.15207623,4.23567843,0.00000000,0.00000000,250.00000000
-1.95922223,-0.56729424,1.44795407,250.00000000,0.00000000,0.00000000
-1.01049534,1.10880637,4.83409663,0.00000000,0.00000000,250.00000000
0.98843865,-1.72903088,4.24674057,0.00000000,0.00000000,250.00000000
-0.90556951,1.58021335,5.60991065,0.00000000,0.00000000,250.00000000
-1.07963134,0.74222502,0.52697560,250.00000000,0.00000000,0.00000000
-1.41030439,0.51164143,0.79336652,250.00000000,0.00000000,0.00000000
-0.54514881,0.51767722,5.69740619,0.00000000,0.00000000,250.00000000
0.17042548,0.30169455,6.15562130,0.00000000,0.00000000,250.00000000
2.32468358,0.64950327,7.70073469,0.00000000,250.00000000,0.00000000
0.34318526,2.15790153,9.64176779,0.00000000,250.00000000,0.00000000
-0.85792553,0.43027447,0.41147306,250.00000000,0.00000000,0.00000000
1.13074348,1.79688310,3.71576457,0.00000000,0.00000000,250.00000000
-0.41281235,-2.17842816,5.33834133,0.00000000,0.00000000,250.00000000
1.06008414,1.92038476,7.87127559,0.00000000,250.00000000,0.00000000
0.21914193,-0.95541717,8.39906128,0.00000000,250.00000000,0.00000000
0.02360803,-1.04729899,8.23706259,0.00000000,250.00000000,0.00000000
0.41173244,1.35203330,9.80897084,0.00000000,250.00000000,0.00000000
-0.52776879,-1.11002666,9.49168367,0.00000000,250.00000000,0.00000000
1.88502444,-0.71320123,7.28247283,0.00000000,250.00000000,0.00000000
0.37380988,-0.55817261,6.71026103,0.00000000,250.00000000,0.00000000
-2.39145523,0.19173404,6.48712025,0.00000000,0.00000000,250.00000000
0.11895898,2.06578794,1.50874619,250.00000000,0.00000000,0.00000000
-0.71509436,-1.26665791,6.07192125,0.00000000,0.00000000,250.00000000
1.04424946,-1.93781735,1.83957348,250.00000000,0.00000000,0.00000000
-1.89517478,-0.63650505,4.38418964,0.00000000,0.00000000,250.00000000
0.74854015,-2.09472739,9.52578119,0.00000000,250.00000000,0.00000000
1.17491454,0.32899665,6.81062412,0.00000000,250.00000000,0.00000000
-0.43680996,-1.89254053,7.76502152,0.00000000,250.00000000,0.00000000
-1.36756104,1.15593334,3.39511936,0.00000000,0.00000000,250.00000000
0.99401463,-1.87537399,0.58607694,250.00000000,0.00000000,0.00000000
0.82642968,1.67146823,8.85516118,0.00000000,250.00000000,0.00000000
-0.64121536,-0.92517177,3.90421991,0.00000000,0.00000000,250.00000000
-1.48724383,0.24263268,6.66352557,0.00000000,250.00000000,0.00000000
0.15475796,-1.21302829,6.52192044,0.00000000,0.00000000,250.00000000
-1.56580756,-1.14217553,6.60920039,0.00000000,0.00000000,250.00000000
-0.22758445,0.08102789,5.08726838,0.00000000,0.00000000,250.00000000
-2.22695858,0.24658324,7.30044527,0.00000000,250.00000000,0.00000000
0.01865769,-0.97557796,1.30990793,250.00000000,0.00000000,0.00000000
-0.24827284,1.91159021,6.77632817,0.00000000,250.00000000,0.00000000
-1.91013680,-0.79819211,6.98517602,0.00000000,250.00000000,0.00000000
0.45119585,-0.71205168,7.07283020,0.00000000,250.00000000,0.00000000
1.35702745,-0.91294243,7.18039214,0.00000000,250.00000000,0.00000000
-0.95669045,0.14329987,3.77710563,0.00000000,0.00000000,250.00000000
1.93726686,-0.67525051,8.30320279,0.00000000,250.00000000,0.00000000
-0.19898085,0.37423227,3.70669211,0.00000000,0.00000000,250.00000000
-1.22154391,1.47441521,9.76502411,0.00000000,250.00000000,0.00000000
-1.35365310,-0.30532065,8.31888395,0.00000000,250.00000000,0.00000000
1.69304127,-1.24720668,2.19090736,250.00000000,0.00000000,0.00000000
1.44578075,-0.62914568,0.61090161,250.00000000,0.00000000,0.00000000
2.11053962,0.66104597,1.65878604,250.00000000,0.00000000,0.00000000
-2.10125658,-0.10208669,4.06430016,0.00000000,0.00000000,250.00000000
1.90488301,-1.53586270,7.53370830,0.00000000,250.00000000,0.00000000
1.64945631,-0.54389495,9.11691089,0.00000000,250.00000000,0.00000000
-0.70605942,-0.98000786,8.89878813,0.00000000,250.00000000,0.00000000
1.05825650,0.70242521,2.84127161,250.00000000,0.00000000,0.00000000
2.07791395,-0.73189343,7.62280605,0.00000000,250.00000000,0.00000000
-1.65921413,0.42157921,4.12226994,0.00000000,0.00000000,250.00000000
0.58471298,1.12856487,4.99111882,0.00000000,0.00000000,250.00000000
-1.21654459,0.77294642,8.50314096,0.00000000,250.00000000,0.00000000
0.13619765,-0.69072837,1.52675157,250.00000000,0.00000000,0.00000000
1.46276938,-1.30535760,9.24956732,0.00000000,250.00000000,0.00000000
0.82114739,0.82387478,8.95994764,0.00000000,250.00000000,0.00000000
0.97040606,1.70934644,9.29208135,0.00000000,250.00000000,0.00000000
-0.38395973,2.36017992,8.28548757,0.00000000,250.00000000,0.00000000
-0.19967154,1.96694819,1.46224030,250.00000000,0.00000000,0.00000000
0.83471488,2.25174182,6.50544580,0.00000000,0.00000000,250.00000000
0.38408174,0.96817234,1.97703240,250.00000000,0.00000000,0.00000000
-2.33222320,0.43055939,4.30309290,0.00000000,0.00000000,250.00000000
-1.43210064,0.87255072,3.82615329,0.00000000,0.00000000,250.00000000
-1.88429364,1.23020258,6.57635396,0.00000000,0.00000000,250.00000000
-2.12121376,-0.51307488,3.14516116,250.00000000,0.00000000,0.00000000
-0.89479394,1.80135150,4.55167903,0.00000000,0.00000000,250.00000000
0.07068724,-0.83550345,1.71076547,250.00000000,0.00000000,0.00000000
0.74368760,1.85362155,6.39533898,0.00000000,0.00000000,250.00000000
-2.01819108,-0.21014001,7.39664616,0.00000000,250.00000000,0.00000000
1.33766805,0.01639235,2.30113623,250.00000000,0.00000000,0.00000000
2.19460588,-0.55428457,8.89183338,0.00000000,250.00000000,0.00000000
1.97848309,0.76507411,4.61820459,0.00000000,0.00000000,250.00000000
0.84999402,-1.34053631,6.24910196,0.00000000,0.00000000,250.00000000
1.07362531,-1.54142273,7.79070656,0.00000000,250.00000000,0.00000000
0.33335995,0.87466517,3.57460809,0.00000000,0.00000000,250.00000000
0.26590323,1.40755526,3.62647835,0.00000000,0.00000000,250.00000000
-1.68738771,0.56586840,5.59375299,0.00000000,0.00000000,250.00000000
-0.59568987,0.48733721,4.78770228,0.00000000,0.00000000,250.00000000
-1.00209210,0.82143063,1.82379601,250.00000000,0.00000000,0.00000000
-1.15824216,-0.42601835,0.38384029,250.00000000,0.00000000,0.00000000
-1.48913546,1.72956793,0.55361542,250.00000000,0.00000000,0.00000000
0.45314461,-0.23187604,9.12822387,0.00000000,250.00000000,0.00000000
-1.34853000,0.54179702,0.07121854,250.00000000,0.00000000,0.00000000
-2.21489865,0.36869433,8.95085248,0.00000000,250.00000000,0.00000000
-1.76772077,-1.21888553,4.52005872,0.00000000,0.00000000,250.00000000
-1.03919062,2.21626877,5.32185625,0.00000000,0.00000000,250.00000000
1.78784932,0.00448222,6.16345528,0.00000000,0.00000000,250.00000000
-0.45867121,-1.64976227,8.13127817,0.00000000,250.00000000,0.00000000
0.74597262,1.94035954,2.28484489,250.00000000,0.00000000,0.00000000
-1.89990556,-1.25800200,0.59754750,250.00000000,0.00000000,0.00000000
-0.87591823,-0.71372922,7.86913815,0.00000000,250.00000000,0.00000000
-0.88127940,-1.11193985,4.84241832,0.00000000,0.00000000,250.00000000
-1.81258308,-1.60479366,6.09395461,0.00000000,0.00000000,250.00000000
-0.17144296,-1.49688214,7.17294985,0.00000000,250.00000000,0.00000000
-0.67147819,0.84788027,2.23454554,250.00000000,0.00000000,0.00000000
-0.17933369,-1.94945295,9.24666358,0.00000000,250.00000000,0.00000000
0.57640716,-1.97950554,3.31356680,0.00000000,0.00000000,250.00000000
0.40768567,1.50929758,3.14441370,250.00000000,0.00000000,0.00000000
-1.85214371,0.89670891,3.08620236,250.00000000,0.00000000,0.00000000
-0.79929689,0.22957619,3.14129365,250.00000000,0.00000000,0.00000000
1.12300810,1.92866764,4.39043900,0.00000000,0.00000000,250.00000000
0.77777825,0.70704424,1.82710791,250.00000000,0.00000000,0.00000000
1.70632397,-1.66419043,4.21217837,0.00000000,0.00000000,250.00000000
-0.56135496,-0.33586670,2.57737683,250.00000000,0.00000000,0.00000000
-1.88031238,-0.82702074,8.37432837,0.00000000,250.00000000,0.00000000
0.87539051,0.56143290,2.92056697,250.00000000,0.00000000,0.00000000
2.32563270,-0.60024864,0.23669184,250.00000000,0.00000000,0.00000000
-1.35720802,0.31219664,4.22950011,0.00000000,0.00000000,250.00000000
-2.04621717,-0.76355374,8.79419285,0.00000000,250.00000000,0.00000000
-1.05745216,1.86011979,9.92595802,0.00000000,250.00000000,0.00000000
1.19673400,2.06806607,9.99856807,0.00000000,250.00000000,0.00000000
1.57949954,-1.02151868,9.98752802,0.00000000,250.00000000,0.00000000
-1.77370704,0.56304301,4.96445658,0.00000000,0.00000000,250.00000000
-1.99405779,0.46594949,5.14316853,0.00000000,0.00000000,250.00000000
-0.85293547,1.97170367,9.59352011,0.00000000,250.00000000,0.00000000
-1.06567295,1.92828517,4.41370105,0.00000000,0.00000000,250.00000000
0.43114180,-0.67986314,1.14987375,250.00000000,0.00000000,0.00000000
-0.21364119,0.74831037,9.09585954,0.00000000,250.00000000,0.00000000
0.56773634,-0.30807362,7.28418117,0.00000000,250.00000000,0.00000000
0.69696833,2.21107814,5.39794910,0.00000000,0.00000000,250.00000000
1.41869757,-0.07450816,3.58875133,0.00000000,0.00000000,250.00000000
-0.13813512,-0.67370390,4.67537936,0.00000000,0.00000000,250.00000000
-0.79995533,1.00945993,7.71884522,0.00000000,250.00000000,0.00000000
0.80339884,0.36445383,0.12628152,250.00000000,0.00000000,0.00000000
-0.43391593,-2.11021894,8.94446910,0.00000000,250.00000000,0.00000000
2.17007915,-0.63112464,5.60214104,0.00000000,0.00000000,250.00000000
1.00375764,-1.53008360,0.52557301,250.00000000,0.00000000,0.00000000
0.73280039,-1.70023909,2.55696581,250.00000000,0.00000000,0.00000000
0.67755168,-1.81460971,1.42078437,250.00000000,0.00000000,0.00000000
0.47902363,-1.53635637,7.74110191,0.00000000,250.00000000,0.00000000
0.13713462,-2.29378759,9.25663190,0.00000000,250.00000000,0.00000000
-1.47029176,0.45307296,4.81603629,0.00000000,0.00000000,250.00000000
-1.97848199,-1.20318406,5.78321464,0.00000000,0.00000000,250.00000000
-1.77207528,0.47844156,4.50643609,0.00000000,0.00000000,250.00000000
0.73524553,2.11307665,0.58587675,250.00000000,0.00000000,0.00000000
-1.76824423,1.26172286,0.12046356,250.00000000,0.00000000,0.00000000
0.26239290,-0.33547358,3.76283069,0.00000000,0.00000000,250.00000000
0.66162032,0.65855590,0.55692235,250.00000000,0.00000000,0.00000000
-0.10696571,-1.97930953,4.23238386,0.00000000,0.00000000,250.00000000
-1.03218736,1.41220170,3.69227847,0.00000000,0.00000000,250.00000000
0.61628583,-1.34650920,5.57529149,0.00000000,0.00000000,250.00000000
-1.55794712,-1.12105242,9.99849843,0.00000000,250.00000000,0.00000000
0.50003479,0.96569798,6.61162295,0.00000000,0.00000000,250.00000000
0.69925862,0.01074162,5.29143538,0.00000000,0.00000000,250.00000000
-0.48673653,-1.57344203,4.01634104,0.00000000,0.00000000,250.00000000
2.35101829,0.42946244,1.54812343,250.00000000,0.00000000,0.00000000
1.81584602,1.16258027,2.69289960,250.00000000,0.00000000,0.00000000
-1.83114440,0.69399319,6.06661953,0.00000000,0.00000000,250.00000000
-0.13879400,0.33164096,6.56402996,0.00000000,0.00000000,250.00000000
0.52350331,1.88860762,1.68919177,250.00000000,0.00000000,0.00000000
-2.30496179,-0.75861053,2.16907578,250.00000000,0.00000000,0.00000000
-2.30637295,0.63724809,4.69578638,0.00000000,0.00000000,250.00000000
-0.49465918,-1.83284126,3.06349567,250.00000000,0.00000000,0.00000000
0.06300644,-1.24291784,5.44411392,0.00000000,0.00000000,250.00000000
1.60339622,-1.02055136,8.45259996,0.00000000,250.00000000,0.00000000
-0.15051370,1.30595091,8.65008289,0.00000000,250.00000000,0.00000000
-0.21027457,-1.33285593,3.90940492,0.00000000,0.00000000,250.00000000
0.85655860,0.15369957,3.79857637,0.00000000,0.00000000,250.00000000
0.16383490,2.02417203,1.89845586,250.00000000,0.00000000,0.00000000
-0.77111970,1.16629053,6.74873239,0.00000000,250.00000000,0.00000000
-0.25639752,2.27359126,3.75863900,0.00000000,0.00000000,250.00000000
-1.12620512,1.67469269,0.41312628,250.00000000,0.00000000,0.00000000
0.17375228,1.76967735,9.07412466,0.00000000,250.00000000,0.00000000
-2.14004400,-1.14937413,4.58728379,0.00000000,0.00000000,250.00000000
1.21573239,-0.67896049,2.67974813,250.00000000,0.00000000,0.00000000
1.34144467,0.91767498,5.31784598,0.00000000,0.00000000,250.00000000
-1.90415964,0.44208083,7.06898909,0.00000000,250.00000000,0.00000000
-0.41658395,-0.36102399,1.03620345,250.00000000,0.00000000,0.00000000
0.48289082,0.25410983,3.90918343,0.00000000,0.00000000,250.00000000
-0.41998384,1.01897920,3.83696620,0.00000000,0.00000000,250.00000000
-1.59659176,0.05867967,8.45710202,0.00000000,250.00000000,0.00000000
1.78792624,-1.61727745,9.39818755,0.00000000,250.00000000,0.00000000
0.45187778,-2.37810414,0.80193070,250.00000000,0.00000000,0.00000000
1.78610673,1.36999108,7.10516433,0.00000000,250.00000000,0.00000000
-0.07812569,1.85520596,6.42129690,0.00000000,0.00000000,250.00000000
1.13022760,-1.52749839,5.91147818,0.00000000,0.00000000,250.00000000
1.65182368,-0.68009492,7.94571252,0.00000000,250.00000000,0.00000000
-0.84896125,1.52912559,6.51227575,0.00000000,0.00000000,250.00000000
1.98287623,0.34703812,8.77171791,0.00000000,250.00000000,0.00000000
0.71244091,0.67519227,0.10359308,250.00000000,0.00000000,0.00000000
-0.90340784,0.64046702,0.97906890,250.00000000,0.00000000,0.00000000
-1.20797459,-1.40660895,2.46553311,250.00000000,0.00000000,0.00000000
-1.13737868,-2.05143291,1.08775705,250.00000000,0.00000000,0.00000000
-1.72550635,1.47830616,4.66506269,0.00000000,0.00000000,250.00000000
-1.70402494,-0.91502261,1.93736030,250.00000000,0.00000000,0.00000000
-2.16307102,0.11992591,2.16243363,250.00000000,0.00000000,0.00000000
-1.30202088,0.48328761,0.68104551,250.00000000,0.00000000,0.00000000
1.91500165,0.47982997,7.00609105,0.00000000,250.00000000,0.00000000
-1.34283091,-1.23975552,7.15013256,0.00000000,250.00000000,0.00000000
0.61297772,-1.34222914,1.19607097,250.00000000,0.00000000,0.00000000
0.19837905,-1.47195169,7.70849275,0.00000000,250.00000000,0.00000000
-1.96537826,0.53570553,5.40517607,0.00000000,0.00000000,250.00000000
0.97877243,1.93691181,8.93829635,0.00000000,250.00000000,0.00000000
-1.51885740,1.28154545,6.89024924,0.00000000,250.00000000,0.00000000
-1.25875741,-1.60122972,4.88043229,0.00000000,0.00000000,250.00000000
-0.91782413,0.93408957,0.29431120,250.00000000,0.00000000,0.00000000
0.44333260,1.66362455,2.55048324,250.00000000,0.00000000,0.00000000
-1.75399763,-0.84481567,7.15959960,0.00000000,250.00000000,0.00000000
-0.65239912,0.40660924,1.02204207,250.00000000,0.00000000,0.00000000
-1.14950975,1.06034725,1.27414243,250.00000000,0.00000000,0.00000000
2.00351667,0.29199741,9.49508722,0.00000000,250.00000000,0.00000000
-0.37986375,-0.31529039,0.23951669,250.00000000,0.00000000,0.00000000
0.08972529,1.15355546,1.93756315,250.00000000,0.00000000,0.00000000
1.07206681,-0.04525946,3.30479804,250.00000000,0.00000000,0.00000000
-2.16812892,-1.04863399,0.08265168,250.00000000,0.00000000,0.00000000
-0.49097674,0.02282493,3.07949920,250.00000000,0.00000000,0.00000000
-1.31869755,2.04011300,2.22918389,250.00000000,0.00000000,0.00000000
-1.52244008,1.62732047,1.55294395,250.00000000,0.00000000,0.00000000
0.64768595,0.04729253,9.69398300,0.00000000,250.00000000,0.00000000
1.60127620,1.51124054,0.75264170,250.00000000,0.00000000,0.00000000
-0.55267740,1.51009763,7.50324705,0.00000000,250.00000000,0.00000000
0.78989532,1.50569872,6.19331365,0.00000000,0.00000000,250.00000000
0.98362126,1.27901046,0.66400943,250.00000000,0.00000000,0.00000000
-1.61638976,1.56060778,9.68555924,0.00000000,250.00000000,0.00000000
-0.45585843,-1.82146754,1.82509108,250.00000000,0.00000000,0.00000000
0.06083805,0.11952863,4.19893245,0.00000000,0.00000000,250.00000000
-1.08663371,-2.11783720,6.92394474,0.00000000,250.00000000,0.00000000
0.72229011,-2.10442640,0.06392868,250.00000000,0.00000000,0.00000000
0.20502950,-2.24012977,6.77195871,0.00000000,250.00000000,0.00000000
-1.29431123,0.41546774,9.12850001,0.00000000,250.00000000,0.00000000
-1.37173627,1.44755708,4.97111776,0.00000000,0.00000000,250.00000000
-0.51391375,-1.85508321,2.12497990,250.00000000,0.00000000,0.00000000
-0.94763832,1.97856311,5.84088304,0.00000000,0.00000000,250.00000000
-0.74799295,-1.98917124,5.25243353,0.00000000,0.00000000,250.00000000
-1.12312160,1.09470162,8.16268592,0.00000000,250.00000000,0.00000000
1.02197779,-2.16443272,3.81804171,0.00000000,0.00000000,250.00000000
-0.26814804,-2.10632761,4.79833492,0.00000000,0.00000000,250.00000000
-2.06364522,0.37649029,4.53151408,0.00000000,0.00000000,250.00000000
-1.76506427,1.59137081,5.67863208,0.00000000,0.00000000,250.00000000
1.96443078,1.21364478,1.05457451,250.00000000,0.00000000,0.00000000
-2.08043387,-0.02379237,8.00162322,0.00000000,250.00000000,0.00000000
0.74124919,-0.61735298,2.45358832,250.00000000,0.00000000,0.00000000
2.14088622,0.20821631,7.42725691,0.00000000,250.00000000,0.00000000
1.77694533,1.23558661,1.22586268,250.00000000,0.00000000,0.00000000
0.90326771,0.59816188,3.48236402,0.00000000,0.00000000,250.00000000
0.78628397,0.82964448,5.08146613,0.00000000,0.00000000,250.00000000
-0.69425352,-1.07942513,6.19564187,0.00000000,0.00000000,250.00000000
-0.23082962,1.53680757,1.83816525,250.00000000,0.00000000,0.00000000
-0.87182304,1.96019231,8.48000301,0.00000000,250.00000000,0.00000000
0.30571830,-0.03190627,0.40411739,250.00000000,0.00000000,0.00000000
-0.16979505,-0.76282383,7.40015536,0.00000000,250.00000000,0.00000000
-0.54097522,-0.44261018,5.71640683,0.00000000,0.00000000,250.00000000
1.09379865,1.72866883,5.88922924,0.00000000,0.00000000,250.00000000
-0.63729597,1.99700727,0.79762022,250.00000000,0.00000000,0.00000000
-1.71761176,1.22403744,0.00677608,250.00000000,0.00000000,0.00000000
-1.61757420,1.33509726,3.05722860,250.00000000,0.00000000,0.00000000
2.32476322,0.38740604,1.99400536,250.00000000,0.00000000,0.00000000
-0.59421357,-0.51752802,2.03679557,250.00000000,0.00000000,0.00000000
0.43523547,-0.00662888,6.05286918,0.00000000,0.00000000,250.00000000
0.55228722,1.01629301,7.95306062,0.00000000,250.00000000,0.00000000
-0.12635818,0.72006222,3.87225968,0.00000000,0.00000000,250.00000000
0.22257482,-0.95870982,7.07296461,0.00000000,250.00000000,0.00000000
-0.16448797,2.24028453,6.91955037,0.00000000,250.00000000,0.00000000
-0.03512863,-0.79147229,4.06801102,0.00000000,0.00000000,250.00000000
-1.69753287,1.57216900,1.00695838,250.00000000,0.00000000,0.00000000
0.54620700,2.17496331,0.94407842,250.00000000,0.00000000,0.00000000
1.77226782,-1.44468641,3.95792540,0.00000000,0.00000000,250.00000000
0.75375995,1.61961590,5.85438550,0.00000000,0.00000000,250.00000000
0.01564638,2.21504997,8.34247142,0.00000000,250.00000000,0.00000000
0.52401240,-1.96111833,4.97117629,0.00000000,0.00000000,250.00000000
-1.87245349,0.54803318,3.44814658,0.00000000,0.00000000,250.00000000
-2.06731640,-0.71465670,2.72768745,250.00000000,0.00000000,0.00000000
-1.87266938,0.86376436,8.03323582,0.00000000,250.00000000,0.00000000
0.08732949,-0.01452511,1.98727998,250.00000000,0.00000000,0.00000000
-0.03773756,-2.05078382,9.69426456,0.00000000,250.00000000,0.00000000
-0.53130729,-2.07593024,6.98520680,0.00000000,250.00000000,0.00000000
-1.58171171,1.53803375,1.85188241,250.00000000,0.00000000,0.00000000
0.48248418,0.69627999,5.60235578,0.00000000,0.00000000,250.00000000
-1.73565657,0.18468052,4.91414063,0.00000000,0.00000000,250.00000000
1.27756982,1.78749620,4.44217253,0.00000000,0.00000000,250.00000000
-0.93913865,1.06135408,8.97575045,0.00000000,250.00000000,0.00000000
-0.82739345,-0.32487937,4.07939912,0.00000000,0.00000000,250.00000000
-1.95739515,-1.28661915,2.29930803,250.00000000,0.00000000,0.00000000
0.91394389,-0.02360545,4.23829912,0.00000000,0.00000000,250.00000000
-0.99468638,-0.30821775,9.26544106,0.00000000,250.00000000,0.00000000
0.89050459,-1.74837937,6.37962684,0.00000000,0.00000000,250.00000000
-0.15780211,0.51103384,6.94035954,0.00000000,250.00000000,0.00000000
-1.20458853,-1.06870301,0.99890945,250.00000000,0.00000000,0.00000000
-0.54645710,-1.23601974,4.50551162,0.00000000,0.00000000,250.00000000
2.05364220,0.48233858,8.32426949,0.00000000,250.00000000,0.00000000
-0.53161409,1.47066984,8.82724883,0.00000000,250.00000000,0.00000000
1.04168255,0.55046091,7.81958747,0.00000000,250.00000000,0.00000000
1.70873052,0.08246750,9.38986657,0.00000000,250.00000000,0.00000000
-0.05089365,-1.55998119,5.26547468,0.00000000,0.00000000,250.00000000
-1.53134495,1.78814616,0.69019277,250.00000000,0.00000000,0.00000000
0.98202571,-1.83191182,6.84284531,0.00000000,250.00000000,0.00000000
-2.13651890,1.18279720,8.03269174,0.00000000,250.00000000,0.00000000
0.47514239,2.06160220,0.05462689,250.00000000,0.00000000,0.00000000
1.30692947,-1.74332146,0.63073967,250.00000000,0.00000000,0.00000000
-0.73345844,-0.20300783,0.13552239,250.00000000,0.00000000,0.00000000
-0.89515371,-2.03975343,6.66224863,0.00000000,0.00000000,250.00000000
0.16132652,2.00532571,8.32746950,0.00000000,250.00000000,0.00000000
1.19942929,0.77948486,3.45150439,0.00000000,0.00000000,250.00000000
-0.48073863,1.20018110,4.73704739,0.00000000,0.00000000,250.00000000
-0.09064003,-1.12482141,0.78063215,250.00000000,0.00000000,0.00000000
-0.68563973,0.22417381,0.02332622,250.00000000,0.00000000,0.00000000
2.41273590,0.11921499,7.22328796,0.00000000,250.00000000,0.00000000
1.80063447,-1.15571397,7.65069016,0.00000000,250.00000000,0.00000000
2.26420500,-0.48391270,6.84155141,0.00000000,250.00000000,0.00000000
0.32134545,-1.40896273,1.61040509,250.00000000,0.00000000,0.00000000
1.62537660,-1.17077133,7.22078477,0.00000000,250.00000000,0.00000000
-1.57262345,-0.84650395,4.42939105,0.00000000,0.00000000,250.00000000
1.02316501,0.67821327,2.45084110,250.00000000,0.00000000,0.00000000
-0.52355463,1.18465840,1.70229163,250.00000000,0.00000000,0.00000000
1.00076755,1.11231318,7.35278384,0.00000000,250.00000000,0.00000000
-1.58012008,-0.60531698,1.80612224,250.00000000,0.00000000,0.00000000
0.97289216,1.96564852,5.25369544,0.00000000,0.00000000,250.00000000
0.68749949,-1.23485810,0.88094268,250.00000000,0.00000000,0.00000000
0.65234888,-0.66039007,2.27073802,250.00000000,0.00000000,0.00000000
2.24118441,0.76720843,6.97744293,0.00000000,250.00000000,0.00000000
-1.21019095,-0.81156680,9.77362585,0.00000000,250.00000000,0.00000000
0.67857361,0.94079688,4.17668844,0.00000000,0.00000000,250.00000000
-0.16441436,-1.32399562,6.19286271,0.00000000,0.00000000,250.00000000
-0.11379888,0.69094448,7.34722699,0.00000000,250.00000000,0.00000000
1.69133345,0.69762942,8.61699328,0.00000000,250.00000000,0.00000000
0.68739112,-2.07616182,3.30525125,0.00000000,0.00000000,250.00000000
2.23743453,-0.60634442,2.92558040,250.00000000,0.00000000,0.00000000
0.30844034,-1.18973498,0.52728117,250.00000000,0.00000000,0.00000000
-2.00922238,-0.00220577,4.54638632,0.00000000,0.00000000,250.00000000
-0.69111605,1.48005496,4.96235624,0.00000000,0.00000000,250.00000000
1.28288085,0.75446851,6.90837066,0.00000000,250.00000000,0.00000000
-1.17675143,-1.40563451,6.45859369,0.00000000,0.00000000,250.00000000
-0.36428175,1.49842711,8.50575326,0.00000000,250.00000000,0.00000000
1.29222579,1.87761795,5.17515853,0.00000000,0.00000000,250.00000000
-0.32800302,2.20600564,2.71515162,250.00000000,0.00000000,0.00000000
-1.58262611,-1.33544222,4.61939293,0.00000000,0.00000000,250.00000000
-1.64187004,-0.24006247,7.77161784,0.00000000,250.00000000,0.00000000
1.48750995,0.86310125,0.20129606,250.00000000,0.00000000,0.00000000
-0.48985564,1.01198503,1.26938169,250.00000000,0.00000000,0.00000000
-0.32445933,1.68273483,3.22535554,250.00000000,0.00000000,0.00000000
-1.16479090,0.30971778,2.76539185,250.00000000,0.00000000,0.00000000
1.48374792,-0.69181924,9.59145122,0.00000000,250.00000000,0.00000000
0.88340623,-1.54474453,3.17392830,250.00000000,0.00000000,0.00000000
-0.26971304,-0.22311542,6.85850130,0.00000000,250.00000000,0.00000000
-0.58015140,-2.27102103,5.54514340,0.00000000,0.00000000,250.00000000
-1.94971801,-1.08926839,6.03048937,0.00000000,0.00000000,250.00000000
1.53405772,1.32943050,5.43458157,0.00000000,0.00000000,250.00000000
1.43750196,-0.48155083,5.87604623,0.00000000,0.00000000,250.00000000
-1.49439329,0.57374372,5.53410672,0.00000000,0.00000000,250.00000000
-1.89622779,-1.41529821,4.71466387,0.00000000,0.00000000,250.00000000
-1.22345315,-1.37162635,0.69388504,250.00000000,0.00000000,0.00000000
-2.13011650,0.40446861,9.06161920,0.00000000,250.00000000,0.00000000
1.63713305,-1.45183782,5.14633722,0.00000000,0.00000000,250.00000000
-0.85412156,-1.83433585,8.16168411,0.00000000,250.00000000,0.00000000
1.51965689,-1.43527389,3.25408848,250.00000000,0.00000000,0.00000000
-1.04121677,-0.99934766,7.18359941,0.00000000,250.00000000,0.00000000
-0.88079634,-1.60526228,5.17856971,0.00000000,0.00000000,250.00000000
0.66302473,0.52279549,9.66674817,0.00000000,250.00000000,0.00000000
0.04127641,1.54142873,1.66663075,250.00000000,0.00000000,0.00000000
1.30949101,-2.03913996,0.10094811,250.00000000,0.00000000,0.00000000
1.20897287,-0.95194369,2.94495240,250.00000000,0.00000000,0.00000000
-0.68843484,-0.01944351,1.99408637,250.00000000,0.00000000,0.00000000
0.46320017,1.48993055,8.89030997,0.00000000,250.00000000,0.00000000
0.62070537,0.05165767,2.16874935,250.00000000,0.00000000,0.00000000
0.07151506,-1.56408878,9.39984440,0.00000000,250.00000000,0.00000000
0.02228152,-1.60501710,3.53498452,0.00000000,0.00000000,250.00000000
1.53517953,-0.40799220,3.65425637,0.00000000,0.00000000,250.00000000
-0.64541169,0.97412763,6.51096181,0.00000000,0.00000000,250.00000000
-0.24938986,-1.72405185,0.06641432,250.00000000,0.00000000,0.00000000
0.37294337,1.54414774,8.85329192,0.00000000,250.00000000,0.00000000
0.42058397,-2.09560169,1.10775863,250.00000000,0.00000000,0.00000000
2.07079909,-0.31676761,5.52644296,0.00000000,0.00000000,250.00000000
2.01743801,0.64062693,1.42925997,250.00000000,0.00000000,0.00000000
0.82509495,-0.01849439,4.26249749,0.00000000,0.00000000,250.00000000
-0.47686126,1.31351124,8.97873725,0.00000000,250.00000000,0.00000000
-0.76433550,-1.03351087,1.36804525,250.00000000,0.00000000,0.00000000
-1.86248292,-0.04156574,4.14501000,0.00000000,0.00000000,250.00000000
1.41712993,1.55671856,9.68906150,0.00000000,250.00000000,0.00000000
1.00313013,0.51316957,3.94992067,0.00000000,0.00000000,250.00000000
0.33987185,-0.78271447,7.02591042,0.00000000,250.00000000,0.00000000
0.25158138,1.88894842,7.21191115,0.00000000,250.00000000,0.00000000
-0.83536353,-0.85270836,7.23380789,0.00000000,250.00000000,0.00000000
-0.91977726,0.00029555,1.72571912,250.00000000,0.00000000,0.00000000
-1.00803000,1.66861936,2.11795215,250.00000000,0.00000000,0.00000000
-2.27411377,0.26661890,6.02991730,0.00000000,0.00000000,250.00000000
2.00016455,0.42492583,7.19181565,0.00000000,250.00000000,0.00000000
-0.50706504,1.79689959,5.39886433,0.00000000,0.00000000,250.00000000
0.63433385,1.95429503,3.63688293,0.00000000,0.00000000,250.00000000
0.84371102,1.50003109,9.11976448,0.00000000,250.00000000,0.00000000
1.26516265,1.62962918,2.19499125,250.00000000,0.00000000,0.00000000
-2.10282143,0.51967518,8.07643946,0.00000000,250.00000000,0.00000000
1.07431323,-0.57870952,4.32199031,0.00000000,0.00000000,250.00000000
0.64674593,-2.12866753,2.12417052,250.00000000,0.00000000,0.00000000
-0.56591378,1.37143221,3.32923257,250.00000000,0.00000000,0.00000000
-0.65516139,-1.26103584,0.80047282,250.00000000,0.00000000,0.00000000
-1.42364661,0.24211862,2.77776965,250.00000000,0.00000000,0.00000000
2.32923043,0.28856113,0.32707360,250.00000000,0.00000000,0.00000000
1.78164814,1.65931830,0.06266624,250.00000000,0.00000000,0.00000000
1.84100915,-1.43538590,5.17949004,0.00000000,0.00000000,250.00000000
-0.34677927,-1.09979103,7.98982665,0.00000000,250.00000000,0.00000000
-0.66415158,-1.15316060,2.07739997,250.00000000,0.00000000,0.00000000
-1.10674560,-0.09671019,7.83164245,0.00000000,250.00000000,0.00000000
-0.75564621,2.18317936,4.39325350,0.00000000,0.00000000,250.00000000
-0.72031625,2.05285838,4.08633516,0.00000000,0.00000000,250.00000000
-0.15882383,-1.38452661,5.41416037,0.00000000,0.00000000,250.00000000
-0.28046051,0.34401062,6.13270144,0.00000000,0.00000000,250.00000000
-1.14030409,-0.67665059,1.86506893,250.00000000,0.00000000,0.00000000
0.50136030,-2.30736317,2.08755638,250.00000000,0.00000000,0.00000000
-2.09934699,0.50347386,8.61449950,0.00000000,250.00000000,0.00000000
0.14304831,1.36712556,4.96907014,0.00000000,0.00000000,250.00000000
-1.58194822,-1.85112115,8.87888598,0.00000000,250.00000000,0.00000000
1.97451395,-1.38497982,4.10364240,0.00000000,0.00000000,250.00000000
-0.29976110,1.08003551,5.02211227,0.00000000,0.00000000,250.00000000
0.01112787,2.21952250,2.73193204,250.00000000,0.00000000,0.00000000
-0.44322157,-0.26903425,8.38555404,0.00000000,250.00000000,0.00000000
0.22399463,-0.99426934,4.88123538,0.00000000,0.00000000,250.00000000
-0.88201408,2.17729974,9.53951559,0.00000000,250.00000000,0.00000000
-0.49694180,0.79956289,0.89655427,250.00000000,0.00000000,0.00000000
1.62356675,-1.67903740,7.23946416,0.00000000,250.00000000,0.00000000
0.70023284,0.88845403,5.19585061,0.00000000,0.00000000,250.00000000
1.53407686,1.02106641,7.47600655,0.00000000,250.00000000,0.00000000
0.47204452,-0.12333166,7.98565257,0.00000000,250.00000000,0.00000000
-0.18626354,-0.02512764,5.61728424,0.00000000,0.00000000,250.00000000
-0.93466991,-1.88256355,5.11386053,0.00000000,0.00000000,250.00000000
0.17121920,-0.30667636,5.40424736,0.00000000,0.00000000,250.00000000
-1.09713954,0.65395331,1.30627713,250.00000000,0.00000000,0.00000000
-1.39991963,-0.89957377,2.80503994,250.00000000,0.00000000,0.00000000
-0.18361572,-1.63314436,5.01714219,0.00000000,0.00000000,250.00000000
0.51325151,-1.75358983,9.65318704,0.00000000,250.00000000,0.00000000
1.13533004,-1.40729656,2.47100499,250.00000000,0.00000000,0.00000000
1.46651982,-1.31614084,8.17286726,0.00000000,250.00000000,0.00000000
1.26774504,-1.59974011,4.73051126,0.00000000,0.00000000,250.00000000
2.06620116,-0.26776830,0.68067538,250.00000000,0.00000000,0.00000000
0.77152005,-1.63170364,3.34833117,0.00000000,0.00000000,250.00000000
-1.45278897,-0.87949470,5.22818619,0.00000000,0.00000000,250.00000000
-1.34925871,1.38173035,0.85791256,250.00000000,0.00000000,0.00000000
-1.11908366,-1.97710123,7.10653411,0.00000000,250.00000000,0.00000000
1.74444189,-0.74699386,0.12478009,250.00000000,0.00000000,0.00000000
0.33139321,-0.31851934,1.54596625,250.00000000,0.00000000,0.00000000
-1.71667482,1.34217867,5.18516545,0.00000000,0.00000000,250.00000000
-0.28678091,-1.38609426,5.74616331,0.00000000,0.00000000,250.00000000
0.99523690,0.25758675,3.55954578,0.00000000,0.00000000,250.00000000
1.80456893,-0.37139617,9.22282343,0.00000000,250.00000000,0.00000000
-0.19748823,-1.63097766,0.09022311,250.00000000,0.00000000,0.00000000
1.40916590,0.33966753,2.02646778,250.00000000,0.00000000,0.00000000
-1.65341658,-1.56577034,4.76090896,0.00000000,0.00000000,250.00000000
-0.96513863,1.22513353,2.71554399,250.00000000,0.00000000,0.00000000
-2.26653078,0.06244550,0.71227534,250.00000000,0.00000000,0.00000000
0.19537950,-1.03703949,0.63491980,250.00000000,0.00000000,0.00000000
-1.03890645,1.53726883,3.85440496,0.00000000,0.00000000,250.00000000
-0.64986761,0.62207867,7.45063377,0.00000000,250.00000000,0.00000000
-1.46309162,-1.49718940,4.11356766,0.00000000,0.00000000,250.00000000
-0.74132098,-0.18259491,8.35929893,0.00000000,250.00000000,0.00000000
-1.33486129,0.35638099,0.15096154,250.00000000,0.00000000,0.00000000
-0.49846545,1.21058630,2.97373924,250.00000000,0.00000000,0.00000000
1.04395010,-1.52273032,5.24377783,0.00000000,0.00000000,250.00000000
1.09916879,1.43956874,0.25477416,250.00000000,0.00000000,0.00000000
0.02695449,-1.40149766,5.80643714,0.00000000,0.00000000,250.00000000
-0.78769767,0.96232039,2.22526176,250.00000000,0.00000000,0.00000000
-1.69094121,-0.19634877,3.63558152,0.00000000,0.00000000,250.00000000
2.19480151,-0.38551170,3.80373531,0.00000000,0.00000000,250.00000000
0.36158196,0.77014523,7.39872138,0.00000000,250.00000000,0.00000000
-1.78505882,-1.63517616,0.46937338,250.00000000,0.00000000,0.00000000
-0.28219973,-0.74379220,0.46794335,250.00000000,0.00000000,0.00000000
-1.24356334,0.45386572,9.64782100,0.00000000,250.00000000,0.00000000
0.51336095,1.39178161,5.23609463,0.00000000,0.00000000,250.00000000
-1.08410749,0.72527398,1.85775518,250.00000000,0.00000000,0.00000000
2.10297646,0.92551016,0.44818544,250.00000000,0.00000000,0.00000000
0.61918769,-0.01266935,9.38066726,0.00000000,250.00000000,0.00000000
0.50869726,-1.78139460,6.16833640,0.00000000,0.00000000,250.00000000
-1.80187882,-0.46960583,2.17243691,250.00000000,0.00000000,0.00000000
0.64986300,-2.35683217,4.48029362,0.00000000,0.00000000,250.00000000
-0.30468999,1.53671092,5.82674411,0.00000000,0.00000000,250.00000000
-0.59714365,-1.00865722,6.03988671,0.00000000,0.00000000,250.00000000
0.45152995,-0.91122497,9.76089349,0.00000000,250.00000000,0.00000000
-1.46046109,-1.58926935,6.92857023,0.00000000,250.00000000,0.00000000
-0.27560739,-1.63868004,1.77315032,250.00000000,0.00000000,0.00000000
0.36757844,-1.11576400,3.03012878,250.00000000,0.00000000,0.00000000
1.69372480,0.61151602,8.10084900,0.00000000,250.00000000,0.00000000
0.95072192,-2.12760873,5.49659539,0.00000000,0.00000000,250.00000000
1.36376606,1.18482254,8.87490949,0.00000000,250.00000000,0.00000000
-0.69825340,-1.99350207,9.03993310,0.00000000,250.00000000,0.00000000
0.28464666,-0.85635396,5.07719376,0.00000000,0.00000000,250.00000000
0.00790849,1.34223616,7.23157243,0.00000000,250.00000000,0.00000000
-1.98854790,-0.39040670,4.29769951,0.00000000,0.00000000,250.00000000
-2.16378022,1.13340057,2.42953443,250.00000000,0.00000000,0.00000000
1.96517119,-0.09724814,2.68067580,250.00000000,0.00000000,0.00000000
0.50124977,2.22319609,0.24349327,250.00000000,0.00000000,0.00000000
1.18134312,1.91178621,2.62188271,250.00000000,0.00000000,0.00000000
