1.3019433570349472,-0.2576503439737022,2.2392292800298152
1.3124579575822555,-0.29327230319480885,1.9014754236246434
-1.046488092390182,-0.4856923047645953,0.03139208908519375
2.1784897019448586,-0.9041102140026662,4.181564300155182
-0.2051251032004878,-0.5153275221718009,0.3199928392304052
0.41351964110741657,-0.28309888153367707,0.14349498667155403
-0.1088159916249628,-1.9245729083382659,5.722683733891964
-0.8295888394029096,-0.7001786721019423,1.2668330977732845
1.4928449377504018,-0.6908892206435413,3.6087920465935563
1.4401025306895756,-0.5263594191894584,2.2643709075746408
-0.03611372570749145,-1.1587290862892146,3.52031707037878
1.3059062597917224,-0.2851209947801504,1.639674435258155
1.8555889844548041,-0.865776615091989,4.375490413192765
-1.4169607896138066,-1.157466300916224,1.7254531252302474
-0.35016217371323927,-0.7311357530207513,2.2786150613980705
-1.823629989051058,-0.725214598378684,0.2394348539317792
-0.6510135007630501,-2.2339998633922407,6.913463898121322
1.216566986102036,-0.11324272022984817,0.8650646952547103
-1.639982395161667,-1.6168854269381947,3.9861768663940644
2.232271100620512,-0.263753990434202,2.548091799247707
0.9375168558518997,-0.12151040514337363,0.6567058808781168
-2.001194041305264,-1.2229819208159571,1.6403948657643164
1.3442739455320878,-0.21346589303415786,1.4822653261335095
-0.9992982515832461,-1.6898136902898089,4.302867408426082
0.3422240932862035,-2.1073662679676683,6.712431316532285
0.5157509305201545,-0.4441146198622769,1.3210436568857786
1.2295763055476174,-0.2983087938206768,1.5732042119101897
1.610368538099531,-0.45385825971782573,2.005960544774066
1.8457470608451676,-1.1937940733151458,5.1153400222818775
1.9787804450096758,-1.0869461510611147,5.131206918804844
2.3658881811231733,-0.5388251493198071,3.957986908665787
-0.5644787686916377,-2.2221595074318397,6.3850371655703775
-0.0869714127402209,-0.5256721294272569,0.6227387826114583
-0.3374982285686234,-1.87729050323432,5.633837597320534
-0.4416609423417036,-1.0526392483441456,2.5597419559676515
1.6291955855044895,-1.0017228406818897,5.371985713848211
-0.4069808895885714,-2.200392191570421,7.0615131245192595
-0.009862633278637555,-2.233663524122183,6.728741664604892
-1.7190055051578674,-0.8524681020042537,1.2238783730019043
1.6858304071531898,0.09229624801754922,0.7548602992564291
0.6038734256423363,-0.09366776895036286,0.5025883653678653
1.7028450285205412,0.04984705621200185,1.3708739440714235
-2.022007997729782,-0.6625857615832152,0.34407468220569726
0.9888670170219037,-0.973260433654614,4.634191948331569
1.4758788607035453,-0.15519956820777217,1.10297228433619
-0.9614927442093228,-0.7094932337911164,0.3810943504954123
0.49403407335916444,-1.4888963727259428,5.38108454167266
2.003559856588907,-0.46541094431522195,3.1452796937652296
-0.016409835883329768,-2.1646662868374373,6.721702620272928
0.021386283703242307,-0.3727288480391115,0.4517804846689788
-1.825950345783377,-0.8369756120905387,1.020200283841658
-0.3536085370679062,-1.3004847635212966,3.241034547086766
1.4120309661689179,0.2580773023463582,0.6151625979563724
0.02534008554018311,-1.6185321591149322,4.672573414940536
-1.6119982533095942,-0.9165554148822147,1.1935920465632777
0.579554950651109,-1.8618177815681518,6.153341906969612
0.8923115279768004,-2.2519390477144716,8.498984698033626
-0.04916943817723736,-2.0090323371030614,5.745524100004883
-0.7755572101921758,-2.0726568819093503,6.056181747821591
0.6004367548621223,-1.5864093913420527,6.306673939996784
-0.7965137809543937,-1.504503132262278,3.356333935406618
-0.28576917204510865,-0.9045319077429677,2.2267503626742693
-1.1006371908244195,-0.4917752127375882,0.35716200936901754
1.4587271478340271,-0.22544083409822996,2.1980380877196204
0.13097022465928057,-2.2967681876962365,7.078699280529594
1.3409887023795213,0.025061517029144064,1.1867000482265833
0.41442012492868413,-1.54657216909127,6.00379611403114
1.249572276316588,-1.4413546009423246,6.530954207911169
-0.9656741180808612,-0.6541098735348194,1.1373572813525124
-0.6491582169007647,-1.115585620074768,2.983249255191336
-0.934432117029971,-2.054076631729712,6.194659270641999
2.161178232507263,0.27313094501412627,0.6615780648400227
0.7320938772179609,-1.9561975724168923,6.588115458096764
-1.6703073002786237,-1.0441524884032938,1.8526775155794717
-0.44108482835551516,-1.117559622621104,2.6367392339401565
2.344434098133754,0.42539085605333915,0.8009987145493447
-1.1455966965034678,-0.9074535816149545,0.8137336087544778
1.8308678457153662,-0.8262626253263398,4.845986841823338
-0.32571477791410763,-1.7441915094174127,4.603229864209268
0.1763031497485947,-0.8100039055621477,2.450914468321883
0.6352480365970475,-2.1501161195985032,7.507304205032347
1.5339273410512844,-0.7206513052171933,4.2312950695796925
1.05494598236727,0.2698397955630667,0.18721412063345322
1.2619732579550935,-1.249930541542342,5.116962268457241
-1.8749881344040333,-1.1386881183528332,1.0287897961211723
0.7640055154911862,-2.1619532091086593,7.126634725244965
-1.7065449318726438,-1.5816298281660826,3.3211249064103465
0.2555385370726478,-1.4903394891660007,4.5929760281153005
1.4858175179578388,-0.8481167985424151,3.7702622809328012
1.2248618354707934,-1.2542671672895986,4.463560553683443
0.6039651717986115,-2.263089670196378,8.78071549305414
-0.9988225905564698,-0.591544600381637,0.5911825002327398
0.7531701451369291,-1.1912637357927984,3.763723995036691
-1.3521068844296797,-1.0144972665485261,1.247693428769302
0.28289596875704576,0.06827986878965409,0.032996781907569384
1.854754209777815,0.39980917813742944,0.40879180995478714
-0.8702104965210314,-2.0689012545491083,6.022783248397277
-0.3276914888479922,-0.35298242079345216,0.6716371441727065
1.6456535084122843,-1.4730740949854202,6.608072623031661
2.0666662708950434,0.1972089861257746,0.4342733574463531
1.0049190711257128,-0.9529769077946971,3.895141065562404
-0.3337475558396857,-2.0729529479235187,6.0178891531925505
-1.4048485864018576,-1.6145614933366979,3.4716847956493813
1.6123556934109784,-0.7156840759754897,2.8960314928979214
1.712723747572327,-0.9910353472637837,4.827496830093395
2.231255380663215,-0.5670457214675828,4.194244252281734
-0.6887935906128926,-1.3536683263037679,3.3859531709280932
0.0780548400977966,-1.5306388656550853,5.440576544518886
1.1250355038023891,-0.9454490600211848,4.043472018099672
-1.6001710613818991,-1.752828537402839,4.222161954140931
0.18198352166717516,-1.1497335277678236,2.915378871720754
-1.935736021625441,-1.4140271113938616,1.769190288771586
0.9628561602856289,-0.0028514785341882563,0.9305505897898603
-0.9736100991925158,-0.7135400919743458,0.5080088834749252
1.0190857309474057,-2.1507804967738324,8.162995615463622
-0.4978525024582543,-1.6135307407187631,3.918319390730385
1.1907983108080866,0.0850728208403595,0.7255136890234337
1.1217502331380043,-1.7206069427618562,7.32119619728521
0.10698870208535624,-1.4620761689838546,5.476432212061745
-0.3643796435904783,-1.232519247474189,3.526305030547557
-0.2471733364099793,-1.4934448310165576,4.098022796441564
0.45175497185212543,-0.7234390259637111,2.920588046773257
-0.7738416647679346,-0.8314644744668018,1.362606419828909
-0.820213310586289,-1.077729475216053,2.4451150638054076
-0.8914687656989747,-1.18645730193712,2.4210393273235695
-0.008194259400599998,-0.2210758713179693,0.5957796655658243
-1.1915364244861892,-1.345752499073131,2.746069726927831
-0.8942852166248944,-0.9234188366072698,2.2737080035158597
0.9633095995598575,-1.7375308221473906,6.024126542971376
2.2561642789966676,0.3765837628222609,0.3030084527647747
0.23556470584818293,-2.3399176876654315,8.081199659190297
0.8947652975441449,-0.5279440197553122,2.515089055853333
2.0486544301442526,-0.6781765729131303,3.4470342726149883
-0.9743819574512055,-1.3236062878152475,2.695025548667319
1.3172205774101386,-1.5949841608505533,6.726443801649664
-2.151101253163917,-1.0399825215735792,0.40925409011295266
-1.4069955996802772,-1.1898322207417573,2.652842889342698
-0.768846971920156,-2.2501678407453567,6.349371544366884
-1.6961746968628866,-0.7276243691714801,0.3186165842682609
0.5821248655726794,-1.6274717269343673,5.409760705265065
1.3575108935183857,-0.931124086492103,3.490384762389308
0.9664670135079168,-2.057547314593191,7.540681818483175
1.271250097330149,0.0397063595646488,0.7193979717309129
-0.9800624201302888,-1.1341071831341467,2.0639913579300053
0.689362178429574,-1.9021707634970966,6.988855582627219
0.3586098347489793,-1.722694998110682,5.231240737350261
0.6385854708590644,-0.6059781041589974,2.9144197608868607
-1.0870073188210172,-1.4113928396691071,3.934611877505043
0.6805107654740347,-0.764617909872195,2.3224388975541133
0.642309933419526,-1.2222996254203307,4.659311666780508
0.2231122850455976,-1.0189161567653222,3.4852728504884425
-0.06968609468245367,-1.1087669817066883,3.9447452316301526
1.925284467110967,-0.6802375965117268,3.3059762587707207
1.8337468497432394,-0.7192834326537537,3.401682468579571
-0.02750752521578422,-1.9304895513998772,5.797927311353527
1.548932190610949,-0.7423740053204771,3.0135996243052765
-1.8587771105112985,-0.9930554613851735,1.5045217125841026
0.9615619427839155,-1.9138631921065812,7.720040923441584
-0.5656078996745215,-0.6293740058712368,1.075319784560127
0.8392402393350692,-1.1710395126953363,3.869357109918792
-1.670979641116282,-1.2749605216156323,1.8147270905012147
1.017966347793925,-1.3572085896086221,5.438966867887844
0.6328632440462376,-0.46002662822119955,0.9787766453017177
-1.0576681459519883,-1.4534162038191105,3.5891153153858415
-0.0831513296428717,-1.2146740599977637,4.209774520703481
-0.9106563643236101,-1.510105182077276,4.402621146575958
-0.20875781364237803,-2.011683849461639,7.020872687579878
0.4264595098146439,-1.3163558195251082,5.028051848091204
-0.05262549293133158,-0.7492475687858855,2.4811578098835985
1.1567245451693118,-0.8355582763643106,3.5061992572340053
-0.14167310106314276,-0.47712294255233395,1.5143905321161055
0.17921257213294756,-1.481457970267718,5.316210817735011
-1.7888740310767532,-0.971295274933312,0.738352090283535
0.973013571985431,-2.1283163584221083,7.724169117509211
1.1886411184686014,-0.1374508572810258,1.528384508207924
1.0325907034785708,-1.3165257094551643,5.039672332444512
0.8193883796442174,-2.1340859920547506,8.605633844947162
-0.2837512845208329,-1.4251271034771957,4.235123786986215
-0.5608579463032837,-1.5480497952965961,4.9395384732864205
0.8847917274751779,-1.992287089179914,7.773025763853168
-0.6520731591239826,-1.4384018236033744,3.3139012425096404
0.9090808772023987,-1.3637360845547708,4.636647964832661
-0.28512500576926825,-0.5513030484041604,1.6181878776152459
-1.3263449325494845,-0.8927575565350478,0.4549257142518637
-0.43460967268443673,-2.4105629977084146,7.0443113547823755
2.270487303914089,-0.6143402875635856,4.208308864428974
0.8412246677361606,-1.6173254041360317,6.277613426903892
-1.6067120096109468,-0.7968699666579162,0.5348614167573673
-0.3197638658642703,-1.6363285920225805,5.2801852424714095
1.2239711742492025,-0.5609891463972989,2.402149578771142
1.9175501845904224,-0.22035015993653112,1.8287126948472943
1.878082912650535,-0.07026949470834569,1.832672739442125
-2.223517389515042,-0.8683776456289154,0.09355961339308383
0.10361044184220541,-0.7667795830878589,1.713748567873561
0.6406072602822974,-1.1813072932975142,3.6378503926772545
0.4744187838469725,-0.6299885315427924,2.0836015139483566
1.0460693347654821,-1.7113731484116628,6.315204669311283
0.9749753421926177,-1.2899389132334895,4.584257198261534
-2.148699203782017,-1.0806061769050717,1.167204606145258
-0.14837975134328626,-0.8214440312334718,2.1844214866298737
-1.4186584131029674,-1.5504930408577309,4.003420356741465
1.6711587608307241,-0.24953275953386397,1.661591654789456
0.36905673067005185,-0.8272847816490915,2.2261469918197143
-0.6188188422212165,-1.2016400122132131,2.6852829117583985
-1.6630980148372265,-1.5578769355980835,3.539465417123393
-0.5863761620307777,-1.058686146663563,3.0703702377258715
0.4854237607354455,-1.1385286204597387,4.358458841863682
-1.5936796912996134,-1.66004173062014,4.237387520526603
-1.7233257492299723,-0.6385237595565401,0.37710905802818995
-0.05078213248115701,-1.3172962412381275,3.55420427437899
0.13742912487965908,-0.3595297061378505,1.1531691574614389
1.7164986034295668,-0.9226281775268945,4.987943873793281
-0.822917609404433,-0.3569661064900957,0.5426589700422502
1.3740614324103126,0.14969428110825952,0.7895416657077559
-0.36659346770714496,-2.30137801773883,6.751063734494879
-0.39683021012284514,-0.8479217128964607,2.394579295357271
-0.013935430730426988,-1.0220353290933655,3.419635347468355
1.6760489271739183,-0.9879002130250665,4.565426831449066
1.294003896398751,-0.41657531722130864,2.7657171946166894
-1.5613641672481835,-1.8593844341104928,3.9257433634529324
2.2205852920240083,-0.5345775611637417,3.849478182356345
-0.9905474690462341,-1.3982749908257197,3.113756415402007
0.47616338529240726,-0.609285783050579,2.7781442768598597
-1.655665697547699,-1.677626073978001,4.114858877322943
0.8341807736739767,-1.1302653036960062,4.722905220270771
0.7277501006296345,-0.2893002825833425,1.0474461668496449
0.07639651395668713,-2.0905264923089497,6.177520290673602
0.5987937595330495,-1.0707474629822678,4.524476253697303
-0.09765658999496922,-1.1002197190682113,2.4983293871156134
1.6114498250191338,0.32286005708423265,0.4477312653997312
-0.31691050015913774,-0.48841180777805865,1.5183049574643004
2.2457352118052976,-0.05007149233207864,2.3132922247315877
2.2141972177976315,0.5539952064449739,0.11143848123870148
-0.17061036929803453,-2.016852069138688,6.712902063980909
-0.9812310354730076,-1.9782721856681569,5.088417121768555
1.1969006113884235,-2.0809515965821688,7.378594448542453
-1.5669894168009388,-1.2986608277238239,1.995050472983212
-0.9930249654958383,-2.0468211871267257,5.299695303148198
0.544959578967348,0.004115121135691038,0.22546268486194565
0.4586834674598739,-0.26110134433600113,1.4671226897083733
2.2010491310847464,-0.5460029977983774,3.197330428591502
0.900328805387593,-1.128944964841672,4.652176481504099
1.1948194421213751,-1.1338357400075745,4.205924766525888
-0.4627212177691957,-1.0090974322072237,2.708819077385961
-0.6134657205711164,-1.3034268144383483,3.12650339126346
0.011329110032100197,-2.2632082602221923,7.326581515351407
0.1871164081562996,-2.2326447976178434,7.105356032944108
1.896461447625566,0.16411254850210213,0.9796513791541805
-0.14956261968026863,-2.399521848526354,7.602241052744648
0.7166327983469212,-0.3783662902500682,2.1450551406908103
1.527439081818372,-1.070294087220975,4.839782776735956
1.0183142675344494,-0.9938261200294681,4.173873180880026
-0.884646734892036,-0.8755043425133777,1.3888569978023202
1.4089221415808455,-1.8255811425768549,7.542495541568003
0.7883929126087033,0.11624270499015718,0.44406775463188497
-0.3332845665456653,-0.659709427595584,1.8867348483813473
-0.004507844717452261,-0.5186793395200947,1.660521008834489
2.0695443434579683,-0.3080448347582097,3.0032809119514448
0.693690454230859,-1.3077821437093637,4.672272848505322
0.5303279371102457,-2.365279310394711,8.487230249688835
-0.23028521307244557,-0.6811764558152111,2.090192730078874
0.16076020316842726,-2.102018041344558,6.652929639732392
0.1800535111451353,-0.7941970571937208,2.4063397120306007
-0.1401328731598017,-1.4938458015813176,3.8768757879192703
1.740379111224653,-0.46904238505744833,2.5994711979315763
-0.7394929907913638,-1.0594298641615205,2.914636274024147
-0.5941729145096469,-1.939933409063507,5.795533265035249
-0.9054752017392693,-1.383827898099357,2.7076751000542645
1.1942384562289492,0.04707592942451534,0.06406178796724449
1.9511771502253654,-1.4102609935976211,6.245514519421711
1.6361709889252434,-1.326738806694936,6.387437910221494
1.6294344638444127,-1.3104787949797734,5.637529095426007
-0.28571272975536005,-1.2130864847387155,3.4043150874588477
-1.224080384026566,-1.2748388541703604,2.822526950840858
1.9743158931835358,-0.45687025426809946,3.7552863612545515
-1.0289606126284494,-0.4763982410347394,0.6700971018294966
1.8980717041274948,-1.4656738079319078,7.011755279719733
0.9336463252852706,-0.4627162782270599,2.18873210595973
-1.292058441587221,-1.2495853988746348,2.537818199889897
1.2842386106809107,-1.1885439154980633,4.652981177933518
0.1602056906217454,-0.20138175524820726,0.046631554980445244
-0.23296781889381263,-2.3655397447310214,6.960004427916859
1.5618070226600353,-0.38040671987425023,2.098607446898372
-1.2325188254558963,-1.559084065557039,3.830118658182311
0.5029374872668052,-0.4529697885915438,1.115404771001417
-1.9872888488099787,-1.3366634969092903,2.091882487317722
0.7311445698713018,-1.0200833712473574,3.650015587290256
2.0670446493555077,-0.8066603428432834,3.7571627854848444
0.38608286182708634,-1.9648284397629021,6.103526971328122
-1.6978366533570697,-0.6074255679175723,0.5268016046960589
1.4943002713874467,-1.6782368595468302,7.0728448537740585
-0.8437329820939092,-0.740558118257939,0.6087110433003495
0.21484323461507585,-0.00929694989947749,0.19008744361611707
0.6427289741992901,-0.17546884492884982,0.19360921134232267
0.45977615945206496,-2.029541508318023,6.801492819964167
-0.33875250091368947,-0.5229903920703095,0.6306149962025254
2.235556441459722,-0.04910593891823574,1.7244255268920328
1.482966225802611,-1.395063112947073,6.571708399959018
-0.242468041823883,-2.015824639587172,6.784813216326844
0.7022630667343799,-2.12689682442937,7.321107643523963
1.7970154006351053,-0.39748335602358154,2.3645477550453773
-1.1164072153471685,-0.783729676862769,0.44867758149686243
0.4728034892504969,-2.3916222104489155,7.999686232096454
-0.31337820366052116,-0.8154994051443828,1.4300742186250437
-1.2206956063355971,-1.4375250879632124,2.5503456943685032
1.8844369943026646,-1.13474342102878,5.686330649038832
-0.4513030844210995,-2.244059640382733,6.856690714928439
-1.2344268784445458,-1.6697438325345038,4.009702652730659
0.695700631649196,-1.9480389202087596,6.373156474783097
-1.1672798570860348,-1.0552456777487027,1.469612856659891
2.374958954453131,0.47070562774682717,0.5178762073202514
-1.0776977806265438,-2.0989066452191105,5.970257423543074
-1.337371969016017,-1.2022900199961573,3.0312420729284275
2.256493029115622,0.1073212401731504,1.4347342891409676
1.5658884190958555,-1.1000009592230708,5.294204478979271
1.8753820065275018,0.14222421756273365,0.3084699848223582
-0.237510979884201,-0.5419592837012569,1.115347930225482
0.27444873746520676,-2.2048054987034345,7.759869879862985
0.33847173943915865,-0.5643951499615965,1.7134508941938298
-1.424879693959822,-1.992161367925551,5.087599996551345
-0.5621009957023113,-2.0463365770437303,5.341190887660438
-0.5683422601697041,-1.6933564339984029,4.465105463915102
2.0205957134926527,-0.42546130339057864,2.4252091625821395
1.2725257073861547,-1.38831250325093,6.3808741743293895
-0.4725609026189756,-1.4030129448799873,4.60124070549277
-0.28239546402628934,-0.12930809409360103,0.25666985854927327
-1.746764470060954,-1.4235387454318078,3.257116329822496
0.44777170434228436,-1.3007721544873643,4.7246930402150635
-1.7906938449428762,-0.7658504132138504,0.961687818403848
-1.0311817701179524,-0.47692448633248463,0.11942005322830629
0.932812249563996,-2.0884786775140083,8.24777284423217
-0.6696641115711683,-1.3148428046764813,3.172953774315097
1.6149108319832117,-1.64670546393565,7.507138082996171
0.19089171961901302,-2.029061322960139,6.755660641041468
-1.891880505703917,-1.4588149073211283,3.394257648283098
1.4635783307229417,0.13106983545503353,0.6845051350533282
-1.046561551807313,-1.9079620605030885,5.335743715148333
-0.39064015739460434,-1.0590510801069004,2.770278001526545
-0.20121462656306172,-1.2725688625258158,4.119205271166427
0.8669835771162011,-0.183292801809413,1.591291190841101
0.09164390580248791,-0.5974189209148175,1.3420510903427973
1.3243340488762922,0.26527867682034534,0.5708419265850284
1.5752129551404528,-1.471885157833586,6.86610691909349
-1.5992593999296567,-1.787874286683425,3.396886131621808
-0.16256229795736013,-1.688726412007974,5.234805547613956
1.2063542473742204,-1.2128770179225592,5.557134918550428
-1.3193672384629722,-1.2462941306105002,2.8115221334204543
1.758498114671589,-1.4530530559956605,6.045424463265059
0.5137454101217062,-2.2352443154468693,7.789683841662222
1.5115189929513135,0.09431194490640725,1.3746994314576277
1.1214516640294372,-2.0352445172711824,7.616563392444818
-0.6985199918597506,-2.258452524043844,7.108611638170466
1.2951024261376611,-0.6631698839617207,3.2094878894667067
0.49118466463394295,-0.7944741495719063,3.004330766152974
-0.8616849994027452,-0.6100390346266906,1.044857966694781
2.3141771909563693,-0.5025068673745723,4.254777367266975
-0.08123314430124895,-0.6037227460160522,1.7281378047075358
1.5593164264898336,-0.6220225159790778,3.9678492050407277
0.304060143306719,-0.6971101953366707,1.5997365869189129
1.0077880985462075,-0.4690262714152191,2.6093301674162706
0.002106502151364886,-0.0454494243682331,0.15852894130732098
1.4813089107285837,0.28051226614642605,0.5354322885683049
1.9388893074565277,-1.4157670045558448,5.979567297667202
2.0083519652198323,-0.9407476593734457,4.711342054244213
1.8627555589744496,-0.6125226563086559,4.153524535059275
-1.4651386999113802,-1.245139519376491,2.1979454217003127
2.005020327043012,-0.7858914917668537,4.247124332606955
-1.8078643658347173,-1.5174927506954148,3.2545499005223446
1.7162443599535537,-1.0243706156526526,4.868759263236008
-0.07169389931901098,-1.038913114753361,2.9663884692229123
-1.9178067094061868,-1.3812214701103758,1.7710712415431418
1.7419877155261088,-0.5166428601351367,3.1975869072740695
-0.419686914532968,-1.1509127243338588,3.7934397607612844
0.8785012867159819,-0.4899331203982372,2.0279984814577166
1.6277152335841252,-1.5235643270735482,6.246064975920764
1.6842171032083468,-0.6271396916509424,3.638868527761284
-1.2657668583194757,-1.632340765734182,3.5165067643330428
0.6732500456334607,-1.7254116770437475,5.654144333020945
-0.813809946348659,-0.3908084204646816,0.395882751057125
0.5849390750537539,-1.048538779008724,4.476666169125832
-0.18473269634117317,-1.8211905902461423,4.974120224623836
-1.760835516130708,-1.019395607401167,1.5015861495839977
1.2547698949449289,-1.3591321413818536,5.558703538866331
0.5849783257991097,-0.9149948259369088,3.7336581711174253
1.6251862716357066,-0.1500947858820414,0.8971690194407256
0.5333450594449534,-1.8888167060711385,6.131509642525945
0.0691812348553865,-2.0491982185779696,7.419842211635972
2.0778558793348916,-0.6527790387631047,4.020997071404693
-1.4552609772681178,-1.2639497802514397,1.7426338718782308
-0.4718360073999616,-1.5830128257410339,4.013652224373249
0.18821244982277155,-1.078733814328276,3.1650580868364866
1.7527023977636198,-0.32142155272877904,1.8256487940149346
1.6309595262154486,-0.13882150199207863,1.564848046742312
-1.5945448544676257,-0.8943279740362227,0.7528112313121926
0.7844564743165019,-1.8212653443962503,6.7721211321728045
1.9104993794822902,-0.17242531439340847,2.6130182583884043
0.2484571420025287,-0.45430521491917686,1.5592334050901135
0.45632379071259543,-1.0248538896211126,3.0827199463954202
-0.31352299956747115,-1.448712153099639,4.667402469478351
-1.4678289995396854,-1.7876392922668363,4.654913702168061
-0.19666042579574164,-2.4135209125225368,8.224110684199855
-1.6581327638816203,-1.406595832453349,2.1418865977287407
1.1912701992724266,-0.9449840238790026,3.9179542414288857
-1.7161692909542843,-1.3731575744341222,2.859194583777139
-0.7694389427517135,-0.7192617796579439,1.424100721669903
-0.8903191907709997,-1.9701661568653552,5.658186750247397
-1.0831837071915422,-1.810378044676526,4.4847171608219725
-0.4332984101009381,-0.9104784510957729,2.513692862349175
-1.7718225811104327,-1.1185032916359858,1.8946014764795338
-1.856685551968498,-1.516901912935886,2.9603799030896836
1.2917958474994606,-1.3273442740696118,5.035266050444936
1.1012212005494733,0.05458062885791639,0.8152881989771465
0.11743785895413329,-0.7135629889640132,1.9673342250369008
0.8697913025401146,-1.8983961329665597,7.498056678268012
0.055701217002651134,-1.2811773254559635,3.755235502525686
1.3233721815793063,-0.8010325990539512,4.206760164033677
0.9818486056390057,-0.7510700298321483,3.362826918702322
1.231242049976509,-1.9864819197405834,8.050987088263382
1.105820752978881,-1.4026899803890713,6.149966024378064
0.4726841379021858,-0.23377307801517888,1.140651653078889
-1.369739722717519,-1.8805518319934047,4.271826008559575
-0.45527394040318725,-0.8368076014011276,2.1575076564008944
1.3639925041712364,-0.9691316908448929,4.497139843632857
-0.2379511638861429,-1.702497527648525,5.39073150782326
0.6204691401001434,-0.17435127286162222,0.9657414180902002
1.0711350694580726,-0.7701695866970475,2.964698972087536
1.913849841042394,-0.07623973369204518,1.3433504040879707
-2.222846184362813,-0.9211380605621889,0.5375026990544429
-0.2580371857364517,-0.27766722053919723,0.8848344833379707
0.8941193026867114,-1.8047129312912482,6.214487917757152
-0.23066259844274228,-0.554761973301149,1.2683137409514533
0.5402995430298793,-0.22913611796175712,1.0311486061221409
-1.4139112320641418,-1.6712077466122819,4.079430343578272
-1.2861495867583446,-1.1381012441480072,1.491176928193596
-1.0455451642244906,-1.6757180608425881,4.0560239194621115
1.01473203998384,-2.1727352763207444,8.838258254916846
2.355317907503058,-0.11741073636588795,2.645854085188264
-0.7548470117974555,-1.585072088120915,4.23729780271668
-1.5839051516943716,-1.7921281907774753,3.568302492862132
-1.4509746832417998,-1.0614692362295377,2.2001872390831636
1.977773647375831,-0.6940016521134732,3.9340092823581028
0.27783968980340346,-0.24886432223448302,0.06803068742290974
0.4081871511262956,-0.2922654186739586,0.24230046826379747
1.7526822451929909,-1.6473924241754376,7.261724177549571
0.8454742702844887,-0.5091558332129437,2.595698492831078
1.5975848472709726,-1.575904465391671,5.905706080743416
-0.876196868458087,-0.862851554518904,1.973211380156833
1.6831054784950201,-0.9885918127539672,4.536447209413045
0.688183828561947,-2.0092795244870842,6.960403408762725
0.2022293239498589,-1.7661657162875248,6.231712148555298
1.830093723802908,0.3916726228147293,0.5149019081648099
0.5281617857340913,-0.49365403733339497,1.159502816013589
2.1997176160995813,0.044326004585780246,1.8926113296877745
0.6815451753051542,-1.284464873049779,4.636508182118419
1.0306341808476756,-0.030103156454920715,0.43145291016358
0.9349101653600891,-1.9954179830646008,7.852631220159225
-1.8990663648366695,-1.2396343227007935,2.093494827201514
-1.268011747130285,-1.202554112102603,2.9668449384896833
-2.1334563164297373,-1.0246213470166932,0.7937464287245444
-0.785901612654599,-1.9698209705460776,5.077321506838333
0.10014108234011279,-2.0513683300649017,6.20384916524829
-1.0851205758877094,-0.741273250595746,0.32382060022659753
1.7100215214987389,-1.7428623740740148,7.294347777648182
0.15281663773760773,-1.9428215965342173,6.163720837392964
-1.4132705371890177,-1.0986815064434485,1.4594710550790624
-0.11300836432173685,-1.8521772588394114,5.140654894998996
-1.7992736691677536,-1.23696082404502,1.7485317858205185
1.2773149687086591,0.23198825696280442,0.17235543315293866
2.425857049150953,-0.2082358165969223,2.120284685605287
-0.49943006768796144,-0.7955403983483664,1.2411934439268335
0.04581831881661719,-2.4155636307341446,8.2521452581803
1.6859035657386292,-0.10334529853397602,1.8530843370389716
-0.48452869582532,-1.8146327069702886,5.951435002814601
-1.7245404970671738,-1.3792190253817502,2.836756910013769
0.7961130431034689,-1.3636385365736088,4.612793001810209
2.37941324802963,-0.39985264079162436,3.8077342776414937
0.6025498023117399,-1.018863131354675,3.501890773104938
1.2335977009793468,0.2191825537745123,0.09616889311570342
1.2455476220307788,-0.08088503381282978,1.531005151182444
0.13352470075485204,-1.5573972552770121,5.389147183588375
0.780086744169145,-0.021848612195312294,0.9121813995473105
0.5047544472914844,-0.352805727281845,1.0570136885023051
-0.7082599757642603,-2.2462974089105767,7.185369049409126
-1.754119390055162,-1.427119134806324,1.9919949112371538
0.7388250645453612,-1.3579659925328533,4.323775444656977
2.3182368414479138,0.33884128771792305,0.8138407948571946
1.7934903534037108,-0.04412072668292406,1.1038984640013727
0.8929138671960284,-0.252406291940189,1.7067996203107771
0.4812274411216674,-0.6429299339678485,1.5207762766452426
-1.8397004139725817,-1.41836582222181,2.1602746039305467
1.5564615187214732,-1.4138159717510084,5.9494154968941
-1.3304094114290175,-1.04194750219536,1.647983415115013
-0.04320336213071661,-2.3218767920211985,7.176417230525329
-1.9695919481158326,-0.8175209723402177,0.544784543146245
1.4842189176686,-0.13778310701316915,1.8172844874722605
-1.6943868460720575,-1.5544813622489349,3.350263134411091
2.093608502194107,-1.1549840183590565,5.986057600123554
0.44307252814329134,-0.9827705849012217,3.8406079905598656
-0.5621671675271138,-2.0439784118767674,5.41213583386427
0.5963853984270785,-0.22504952211662613,1.0038432121223084
1.9258924207471908,-0.9721931718600955,4.194282478428742
-1.0177917998123673,-1.0830540183966804,2.4877861978903693
-0.4532797696307663,-2.269470436221737,7.16006835385887
0.8686056960110133,-1.0359757536140082,4.181918965950749
-0.16851234993555894,-2.26463084130286,6.808716013279957
-1.7084809687792732,-1.3202281128879292,1.6129898599639048
1.3283103668837661,-1.911809948677538,7.488672131295542
0.8787688099391929,-1.725945405009851,6.643626209324912
2.00876175375809,-0.20781869524302315,2.5141917493995534
2.3698004298099677,-0.09724537225979704,2.903528724910317
0.31081311051808536,-2.1916531785518036,7.766969516776028
-0.3641802759656849,-0.7094237348250334,1.297802597240607
-2.2775587671374264,-0.8208406556025529,0.7320572552917526
0.4551512927492481,-0.978830098020181,3.402026305857465
0.25436046059323664,-2.153185956869198,7.08493998318448
-1.5620840451202087,-1.030517501205091,1.7981951629785375
0.5747794067406273,0.09827016206584183,0.06289951058746857
-1.2661147544444662,-1.447794929243176,3.462786836461241
0.7197687311720959,-0.2517858831375788,0.7815506068781763
-0.4666767070878958,-1.6390386839635585,4.112138016374844
1.876343909329226,-1.2320552086020846,4.985839777690045
1.1434423475142703,-0.9418042418158508,3.3410416737317403
1.841590908997267,-0.46950313748361283,3.431139553599203
-1.7860249033096258,-1.6382693637471288,2.789897508571978
0.7434319897673571,-0.3780352457396709,1.7220618137652899
-1.9702805657606328,-0.8959309825269848,0.5423457100513529
1.7628524553457243,-0.8565657338551607,4.046283456943254
-0.8191364459494757,-1.6636097311514055,4.020484487345315
0.3689419346451716,-1.798929361317015,6.193146062129967
-0.16242107889091206,-1.7700884710018288,6.264303533978329
1.1627803986809897,-1.8969236574004666,7.970822330348323
0.6304672410103623,0.059420956763175985,0.24491818038305024
-0.842520109146213,-2.050621060096043,6.20220468226851
0.17787554249292467,-0.16174045705445791,0.36357947144554204
2.143773886204086,0.21635379140337788,1.4345822225929483
1.8074954726420254,-0.769161227256227,3.7804887852827984
-0.3979435509424442,-1.5875785034730798,4.032386691928014
1.432072188671838,0.319845765423193,0.34048678001220023
1.5847481966593675,-1.4703336836461176,5.8838568956635084
0.8441202009103399,0.011058440984489494,0.16401139365282758
-0.6071407081073084,-0.517486882193145,0.3960147371064915
-0.6683278981733803,-1.3228986765673967,3.6875555451130513
-0.8718632927546861,-2.0720597209771303,6.024853688481596
-2.064806751367691,-0.723216659426969,0.44631641060413063
0.5457251157273791,-1.2039657713735161,4.107958990915882
1.3287048849627612,-1.1586809814409575,4.167921171594538
-0.908112250510366,-1.8113047994689317,4.151609540260858
2.3774326290229735,-0.21163838449926725,2.621263440410493
-1.105005575012161,-1.0790711634089443,1.9325339967958088
0.022283613003754366,-0.26746083231971607,0.19835102602519972
1.935335452656644,-0.8700117921826176,3.8753580158450474
1.7720659941847328,0.27550944504998875,0.06173834378420118
-0.9018503231559782,-1.7972133036886877,5.053980589574193
2.273202863841442,0.20102272036107272,1.4837604663913617
0.9167675874588974,-0.0474247242257388,1.171311677814052
-0.8861816500948606,-1.8456535065595034,5.735798764783809
-0.6525576147831263,-1.8432325510874068,5.236480061721763
1.9850960461219476,-0.568117055989439,3.127274899479432
1.7545619853309307,-1.4920604078088169,6.081991206387951
1.8622975200679681,-0.6422758965384993,4.160225194019685
1.3247319259557786,-0.9900357438955153,4.24278036947133
-0.7724049618930031,-0.922226389839568,1.1954649175196785
-0.896671407058606,-0.5852425023544098,0.14304330244407137
-1.887584461529961,-0.7963932142401104,0.7300089311424918
0.030358094453824206,-1.4618062401192047,4.051215717597315
-0.45746409190934934,-1.8203701689290506,4.816959038376054
0.8876078583136835,-0.3687784581129863,0.9869722397621628
-1.2671981858656818,-1.833458011945063,5.338963343163728
-1.2258635099743644,-2.06805025639153,5.901541896420994
-0.5395584191375499,-0.5593687125864627,0.6009161140554176
-0.8669344694448732,-2.1068669593695404,5.807546649425802
0.3012668070132699,-1.3611103085806815,4.216108120869353
0.8421098375509039,-1.5380480008462831,6.393596117589224
0.9876653615179655,-1.1977275772228675,4.213905729714991
1.8069819419572284,-0.18313795130898047,2.2429300723856285
1.0588602162694813,-2.20347800360562,8.45433565223168
0.5440996772488893,-0.9482280429264415,2.7404658816161787
0.48251217961330867,-1.3019101330487637,4.8928797496095715
0.4619377058270087,-0.6540589563658706,2.0356688153731337
-1.4154540187255498,-0.8948960393786899,0.768055279792994
-0.5041066720562876,-1.8818727498076608,4.924341298251752
0.3759490271599769,-1.0856857907951867,3.9711500918473366
-0.6465214089437992,-1.2543794366157166,3.1867851112224574
-0.07503913136686746,-0.9520406228255981,2.325502865910191
1.0485877256467657,-2.0552096802769535,8.340049341795758
1.8655376128353804,0.33239906610262,0.4403417826458145
2.3342890084897183,0.10845564810851913,1.93962533217648
-0.6304318442276957,-1.517315270598484,4.3480673842582105
1.8326375998987152,-1.5805123312703566,6.359155704584331
0.24281273590834465,-2.359097177921222,7.68246093325083
0.1789148258531295,-0.8224990743946162,3.2629524941736876
1.6456926067344158,-1.2662958901715229,5.446136339146054
-0.2929741623700328,-1.632618078188208,5.42506413442982
-0.43503637648926535,-2.233053099448566,7.180978001861117
1.1418457953238859,-0.8181514686821114,3.61564066926117
0.7830294581841905,-2.143941548135363,7.756703277026719
2.0647207698144805,-1.0891324038216774,5.634076284759257
1.709011873388272,-0.36959422763518834,2.0284713062746764
-0.27509864334958856,-0.5113256937227171,1.6583265879345643
1.3178232058652841,-0.623471339789718,3.0527179398953996
0.52111158741336,-2.3064233557628646,8.197228568572578
-0.12906734783926455,-0.5636015552900332,0.6541369589079082
1.061503850165046,-1.3618301332882117,5.687043697194211
0.973768481371808,-0.9884952218811439,4.680193007160374
1.2610785054995008,-1.9991694618038198,8.441955151581453
-0.8541411429606794,-0.518701861302075,0.9585015178141454
0.2631226530016442,-1.469734625841389,4.378662851323172
0.14334987293325135,-0.7536419677037113,2.522104779256895
-1.2841909364334578,-1.6074651810726206,3.401110685861546
0.8541967489159707,-0.08724752335258786,0.19984775850950154
0.3876361786157289,-1.8730374216082133,5.936664122897881
-1.2450705992315878,-1.6919076510334878,4.236418952783141
1.587751840659989,-0.6763434936882571,3.5920493270543687
-0.8942629450773052,-0.592095111953273,0.7852996935192769
0.6183699448473867,-0.2772729740058666,0.8421704324476442
-1.4017531659517954,-1.6313684543813716,3.424989353297667
0.04603936286913696,-1.2148412701453921,3.4738082015075755
-0.7005241220837615,-1.831269710306891,5.550799838633522
0.8213386032576799,-1.537528834142513,5.283842464664891
-1.892080839898973,-1.339258566762499,2.0588575249875083
1.9753563867490291,-0.638045479328002,3.47615208649
0.631343936074663,-0.40547588614072055,1.3781765285730452
0.9548424908492492,-0.09910234890039539,1.4768465851413692
-1.2959419761176159,-0.7662291390478432,0.9994351135540858
1.3495189343304066,-1.7226351738080863,6.725235482840494
1.4093264973429456,-0.31365889937823516,1.98493787475989
1.8311511632804023,-0.8051961888876048,4.221378812844067
1.6523828823732083,0.013897517248004674,1.7069107022766394
0.6932139848488258,-1.4362630629115385,5.633766001651632
0.46205367345628834,-2.3418915027512033,8.768253521434712
0.2671683126665648,-0.9351041664787991,3.075574332647367
-0.031906036145661794,-0.3674469183840259,0.7481022666787751
2.385451962693337,-0.4994176372048734,3.016561643190181
-0.05512946220693209,-1.5469876157071139,4.362794195932787
0.18402014948737036,-2.0962768804949863,6.368026796772728
-0.3800430422963083,-2.1693080254778176,6.4105916242359795
0.7917018932940457,-1.1808477317659885,4.623611736933945
-1.0459607531172912,-0.7995321123344278,1.1069142481035588
1.8537738311524212,-1.4357204487540225,6.707496026261335
-0.34218229241702725,-2.0548740097316256,6.860415190009942
0.0913668192274716,-0.4614277411458342,1.5076261922562018
0.7383855069208832,-0.30405399778203973,0.6922557117418371
1.333325622776572,-0.9109336497548678,4.466165766271023
0.16258624766974403,-1.335548577121799,4.761700278157214
-1.1175031997432558,-0.6161251398236745,0.008295075532986917
1.3741002046705233,-1.082402602887662,4.635640430710335
1.351856853417943,-0.8972294526222331,3.4229090984209876
1.201483961021152,-1.730029564090807,6.864754434004602
1.6885735414110552,-1.074479712291724,5.268889968622345
